105.81094400 21.03644900 45.00000000
105.81293810 21.02628950 45.00000000
105.68822890 21.05017180 45.00000000
105.68835090 21.04987900 45.00000000
105.68887380 21.04908200 45.00000000
105.68837710 21.04970820 45.00000000
105.76472840 21.01985810 54.00000000
105.76472680 21.02112800 54.00000000
105.76314900 21.02116750 54.00000000
105.76311610 21.01985300 54.00000000
105.76379450 21.00224210 250.00000000
105.81968620 21.05506460 45.00000000
105.39083620 21.15775510 35.00000000
105.41764500 21.13699010 35.00000000
105.41941210 21.13686810 35.00000000
105.41521470 21.14262460 35.00000000
105.41453180 21.14209770 35.00000000
105.41352450 21.14131360 35.00000000
105.41306060 21.14014530 35.00000000
105.41279000 21.13934480 35.00000000
105.42330730 21.13257350 35.00000000
105.42292790 21.13348000 35.00000000
105.41702470 21.13794940 35.00000000
105.41624580 21.13807260 35.00000000
105.41749840 21.13808110 35.00000000
105.41750750 21.13888830 35.00000000
105.41263200 21.13895220 35.00000000
105.41197730 21.13939200 35.00000000
105.41578870 21.14077140 35.00000000
105.41564990 21.13947190 35.00000000
105.41520940 21.13965500 35.00000000
105.41590840 21.13902530 35.00000000
105.42081950 21.13769570 35.00000000
105.41644940 21.14044750 35.00000000
105.41451390 21.13962630 35.00000000
105.41760230 21.13634250 35.00000000
105.41937150 21.13618970 35.00000000
105.42048230 21.13414370 35.00000000
105.38203640 21.22524570 35.00000000
105.80147300 21.04086770 35.00000000
105.80147460 21.04057600 35.00000000
105.78619010 21.04955530 35.00000000
105.78499460 21.04841440 35.00000000
105.78500640 21.04798230 35.00000000
105.78563360 21.04799330 35.00000000
105.78562180 21.04842540 35.00000000
105.78500850 21.04863730 35.00000000
105.78559360 21.04864760 35.00000000
105.78545290 21.04864510 35.00000000
105.78530370 21.04864250 35.00000000
105.78515660 21.04863990 35.00000000
105.78551660 20.99777590 45.00000000
105.76266210 21.02347230 35.00000000
105.76359800 21.02346030 35.00000000
105.76268720 21.02420950 35.00000000
105.76359830 21.02420730 35.00000000
105.76314080 21.02261820 35.00000000
105.76238030 21.02262180 35.00000000
105.76238540 21.02207990 35.00000000
105.76313820 21.02207160 35.00000000
105.76582310 21.02112200 35.00000000
105.76584350 21.01986470 35.00000000
105.32086720 21.12247040 35.00000000
105.77656680 21.02258320 35.00000000
105.78510510 21.03959420 35.00000000
105.78511710 21.04005400 35.00000000
105.78511110 21.03982590 35.00000000
105.78509930 21.03937190 35.00000000
105.78509360 21.03915530 35.00000000
105.78444150 21.03938620 35.00000000
105.78445930 21.04006830 35.00000000
105.78445330 21.03984010 35.00000000
105.78444730 21.03960840 35.00000000
105.78443580 21.03916950 35.00000000
105.78464520 21.04008070 35.00000000
105.78494120 21.04006990 35.00000000
105.78460910 21.03914650 35.00000000
105.78490510 21.03913570 35.00000000
105.78736830 21.22028440 35.00000000
105.78682640 21.22043790 35.00000000
105.79787630 21.21723910 35.00000000
105.79720540 21.21744020 35.00000000
105.79653590 21.21763070 35.00000000
105.79587910 21.21782660 35.00000000
105.79520860 21.21801820 35.00000000
105.79431870 21.21827510 35.00000000
105.79366070 21.21846780 35.00000000
105.79300280 21.21865720 35.00000000
105.79234370 21.21884780 35.00000000
105.79167310 21.21904260 35.00000000
105.79101410 21.21922560 35.00000000
105.79012300 21.21949000 35.00000000
105.78946510 21.21967950 35.00000000
105.78880830 21.21987000 35.00000000
105.78814120 21.22006050 35.00000000
105.79737740 21.03920520 35.00000000
105.79742490 21.03882860 35.00000000
105.79792760 21.03887090 35.00000000
105.79789520 21.03926150 35.00000000
105.41917300 21.20175370 35.00000000
105.75396480 21.00963870 45.00000000
105.33789590 20.94471530 35.00000000
105.33828040 20.94458800 35.00000000
105.34325410 20.91707830 35.00000000
105.33964050 20.92166630 35.00000000
105.33753000 20.95659530 35.00000000
105.34126430 20.97864450 35.00000000
105.73886210 21.04667870 45.00000000
105.41314450 21.13796810 35.00000000
105.34138970 20.81655520 35.00000000
105.78644720 21.21982240 35.00000000
105.78656540 21.22025280 35.00000000
105.74519020 21.00219520 45.00000000
105.76391330 21.02168820 45.00000000
105.76390290 21.02169360 45.00000000
105.76389490 21.02170190 45.00000000
105.76389030 21.02171220 45.00000000
105.76388970 21.02172340 45.00000000
105.76389310 21.02173410 45.00000000
105.76390010 21.02174320 45.00000000
105.76390990 21.02174950 45.00000000
105.76392140 21.02175250 45.00000000
105.76393270 21.02175180 45.00000000
105.76394320 21.02174790 45.00000000
105.76395180 21.02174110 45.00000000
105.76395770 21.02173220 45.00000000
105.76396030 21.02172190 45.00000000
105.76395930 21.02171140 45.00000000
105.76395480 21.02170180 45.00000000
105.76394730 21.02169390 45.00000000
105.76393690 21.02168840 45.00000000
105.76392510 21.02168640 45.00000000
105.76391330 21.02168820 45.00000000
  
105.34806450 21.03568450 45.00000000
105.34800260 21.03557550 45.00000000
105.34816710 21.03551270 45.00000000
105.34822380 21.03562840 45.00000000
105.34806450 21.03568450 45.00000000
  
105.50396740 21.13841580 18.00000000
105.50411240 21.13834450 18.00000000
105.50408370 21.13829380 18.00000000
105.50407610 21.13828020 18.00000000
105.50406870 21.13826730 18.00000000
105.50403680 21.13821070 18.00000000
105.50389180 21.13828200 18.00000000
105.50392460 21.13834020 18.00000000
105.50393130 21.13835200 18.00000000
105.50393690 21.13836190 18.00000000
105.50396740 21.13841580 18.00000000
  
105.38168130 21.16533530 45.00000000
105.38171640 21.16534000 45.00000000
105.38172570 21.16532970 45.00000000
105.38173650 21.16531780 45.00000000
105.38172390 21.16528620 45.00000000
105.38168890 21.16528150 45.00000000
105.38166760 21.16530610 45.00000000
105.38168130 21.16533530 45.00000000
  
105.78007970 21.02525240 68.00000000
105.78008040 21.02524180 68.00000000
105.78008430 21.02523270 68.00000000
105.78009110 21.02522530 68.00000000
105.78010000 21.02522020 68.00000000
105.78011020 21.02521790 68.00000000
105.78012060 21.02521860 68.00000000
105.78013030 21.02522240 68.00000000
105.78013820 21.02522870 68.00000000
105.78014370 21.02523700 68.00000000
105.78014610 21.02524650 68.00000000
105.78014500 21.02525720 68.00000000
105.78014010 21.02526690 68.00000000
105.78013200 21.02527440 68.00000000
105.78012170 21.02527900 68.00000000
105.78011020 21.02528000 68.00000000
105.78009910 21.02527730 68.00000000
105.78008970 21.02527130 68.00000000
105.78008290 21.02526270 68.00000000
105.78007970 21.02525240 68.00000000
  
105.80118270 21.21247320 45.00000000
105.80120250 21.21250930 45.00000000
105.80123960 21.21253020 45.00000000
105.80128300 21.21252980 45.00000000
105.80131970 21.21250800 45.00000000
105.80133750 21.21247610 45.00000000
105.80133700 21.21244020 45.00000000
105.80131840 21.21240870 45.00000000
105.80128610 21.21238910 45.00000000
105.80124770 21.21238610 45.00000000
105.80121230 21.21240040 45.00000000
105.80118640 21.21243290 45.00000000
105.80118270 21.21247320 45.00000000
  
