105.55253033 20.99249840 6.00000000
105.55056913 20.99321590 6.00000000
105.54567560 20.99226107 6.00000000
105.54470572 20.99412034 6.00000000
105.54472253 20.99447462 6.00000000
105.54471221 20.99455700 6.00000000
105.54244980 20.99590715 6.00000000
105.54506255 20.99752305 6.00000000
105.54427819 20.99893775 6.00000000
105.54306535 21.00009180 6.00000000
105.54931148 20.99419606 6.00000000
105.55184912 20.99431742 6.00000000
105.54853365 20.99434370 6.00000000
105.55419687 20.99435060 6.00000000
105.54931122 20.99457350 6.00000000
105.55440914 20.99460842 6.00000000
105.57030282 20.99656981 6.00000000
105.57039160 20.99685942 6.00000000
105.57175113 20.99710229 6.00000000
105.57152486 20.99717144 6.00000000
105.57187117 20.99720358 6.00000000
105.57169900 20.99724078 6.00000000
105.57206981 20.99739986 6.00000000
105.57183820 20.99738530 6.00000000
105.57177870 20.99748627 6.00000000
105.57202443 20.99751220 6.00000000
105.57182545 20.99759735 6.00000000
105.57194095 20.99759940 6.00000000
105.54817483 20.99526401 6.00000000
105.55247232 20.99538733 6.00000000
105.54835220 20.99542585 6.00000000
105.55247715 20.99562680 6.00000000
105.55489964 20.99568722 6.00000000
105.55031125 20.99586905 6.00000000
105.55255830 20.99595050 6.00000000
105.55461962 20.99645764 6.00000000
105.54909625 20.99957402 6.00000000
105.54661845 20.99967225 6.00000000
105.57284664 20.99809491 6.00000000
105.54352545 21.00027650 6.00000000
105.54329551 21.00069518 6.00000000
105.54416111 21.00094674 6.00000000
105.54262545 21.00111435 6.00000000
105.54321851 21.00132310 6.00000000
105.54384635 21.00166602 6.00000000
105.54357063 21.00211962 6.00000000
105.54377005 21.00220405 6.00000000
105.54248566 21.00221846 6.00000000
105.54388310 21.00224670 6.00000000
105.52337491 20.98666582 6.00000000
105.53984003 20.99187770 18.00000000
105.53978150 20.99279480 6.00000000
105.53989916 20.99430664 6.00000000
105.53679124 20.99778863 12.00000000
105.53719799 20.99790679 12.00000000
105.53643888 20.99798549 12.00000000
105.53738143 20.99818629 12.00000000
105.53019064 20.98790894 6.00000000
105.53263327 20.99828291 6.00000000
105.53305989 20.99837537 6.00000000
105.53361685 20.99852760 6.00000000
105.53206794 20.99984258 6.00000000
105.53617523 21.00234979 6.00000000
105.53560955 21.00438480 6.00000000
105.53616513 21.00446293 6.00000000
105.53055396 21.00479015 6.00000000
105.51423005 20.99617649 6.00000000
105.51337541 20.99738594 6.00000000
105.51366334 20.99750394 6.00000000
105.51377650 20.99774395 6.00000000
105.51883006 20.99971731 15.00000000
105.51950469 20.99997439 15.00000000
105.51943824 21.00025763 6.00000000
105.51868826 21.00026781 15.00000000
105.51985415 21.00040451 6.00000000
105.53643402 20.99821870 9.00000000
105.53729503 20.99842796 12.00000000
105.53695387 20.99856154 12.00000000
105.53668703 20.99864127 9.00000000
105.54185833 20.99970704 6.00000000
105.53792144 20.99990339 6.00000000
105.53743444 21.00051395 6.00000000
105.53746505 21.00153595 6.00000000
105.54018392 21.00163410 6.00000000
105.53747371 21.00202116 6.00000000
105.51951948 21.00095127 6.00000000
105.51904784 21.00126653 6.00000000
105.51928391 21.00132703 6.00000000
105.51896731 21.00155439 6.00000000
105.51920594 21.00161089 6.00000000
105.51655635 21.00405235 6.00000000
105.51402635 21.00419531 33.00000000
105.51583665 21.00433166 15.00000000
105.51494580 21.00450465 6.00000000
105.51412219 21.00470060 15.00000000
105.54088690 21.00222393 6.00000000
105.53732260 21.00236015 6.00000000
105.53643731 21.00371081 6.00000000
105.53773864 21.00380757 6.00000000
105.53745570 21.00389025 6.00000000
105.53772035 21.00402422 6.00000000
105.53801123 21.00411856 6.00000000
105.53649807 21.00422231 6.00000000
105.53742412 21.00443486 6.00000000
105.53772890 21.00455990 6.00000000
105.53358332 21.00481028 6.00000000
105.53131941 21.00737627 15.00000000
105.53169445 21.00741995 6.00000000
105.53168828 21.00752832 6.00000000
105.53178050 21.00757378 6.00000000
105.53114342 21.00782973 6.00000000
105.53149802 21.00791602 6.00000000
105.53112605 21.00846885 21.00000000
105.53108817 21.00907774 6.00000000
105.53091447 21.00919463 6.00000000
105.53717495 21.00494985 6.00000000
105.53748725 21.00507375 6.00000000
105.53740512 21.00534590 6.00000000
105.53799974 21.00547049 6.00000000
105.53840446 21.00587249 6.00000000
105.54167389 21.00800875 6.00000000
105.54119189 21.00896009 15.00000000
105.53714381 21.00932264 12.00000000
105.54230170 21.00986423 6.00000000
105.53770130 21.01168717 6.00000000
105.54403030 21.00230082 6.00000000
105.54411320 21.00233010 6.00000000
105.54427955 21.00238885 6.00000000
105.54283180 21.00249605 6.00000000
105.54502986 21.00273385 6.00000000
105.54461264 21.00341281 6.00000000
105.54466190 21.00358585 6.00000000
105.54441531 21.00377129 6.00000000
105.54431909 21.00403871 6.00000000
105.54404385 21.00419705 6.00000000
105.54585860 21.00189690 6.00000000
105.54672905 21.00293542 6.00000000
105.54588448 21.00311062 6.00000000
105.55726651 21.01106538 6.00000000
105.55700719 21.01133957 6.00000000
105.55771752 21.01162127 6.00000000
105.55707037 21.01167452 6.00000000
105.55752367 21.01184368 6.00000000
105.55717548 21.01191262 6.00000000
105.55000505 21.01938480 6.00000000
105.54254550 21.00459475 6.00000000
105.54571403 21.00468169 6.00000000
105.54480273 21.00952128 6.00000000
105.54534390 21.00956890 6.00000000
105.54463912 21.00987454 6.00000000
105.54271935 21.01016280 6.00000000
105.54412169 21.01095222 6.00000000
105.54285692 21.02072571 6.00000000
105.54381760 21.02078839 6.00000000
105.54496810 21.02133192 6.00000000
105.55010899 21.01986593 6.00000000
105.54974070 21.02034005 6.00000000
105.55009236 21.02058116 6.00000000
105.54988053 21.02078149 6.00000000
105.55103482 21.02227087 3.00000000
105.54252677 21.02144274 6.00000000
105.54462058 21.02179757 6.00000000
105.54343517 21.02189323 6.00000000
105.54275781 21.02267279 6.00000000
105.54379518 21.02303541 6.00000000
105.53510919 21.00940985 9.00000000
105.53315335 21.00973650 18.00000000
105.53505767 21.00996456 6.00000000
105.53130190 21.01078586 6.00000000
105.53106743 21.01122723 6.00000000
105.52838000 21.01228079 6.00000000
105.52554168 21.01235331 6.00000000
105.52403725 21.01242596 6.00000000
105.52526526 21.01266786 6.00000000
105.52379428 21.01273974 6.00000000
105.52563431 21.01285727 6.00000000
105.52535866 21.01316329 6.00000000
105.52480558 21.01317496 6.00000000
105.52716827 21.01331972 6.00000000
105.52344039 21.01335631 6.00000000
105.52552229 21.01390640 6.00000000
105.52526532 21.01456435 6.00000000
105.52445433 21.01475245 6.00000000
105.53344367 21.01587360 6.00000000
105.53388040 21.01658205 6.00000000
105.52344946 21.01220795 6.00000000
105.52316562 21.01251777 6.00000000
105.52260598 21.01315885 6.00000000
105.52332055 21.01475171 6.00000000
105.51726715 21.02400280 6.00000000
105.52934266 21.01788137 6.00000000
105.52822082 21.01840944 6.00000000
105.52737464 21.01841087 6.00000000
105.52826389 21.01933611 6.00000000
105.52741915 21.01934640 6.00000000
105.54220476 21.02112079 6.00000000
105.54186779 21.02137862 6.00000000
105.54212358 21.02139301 6.00000000
105.54208474 21.02230317 6.00000000
105.54238618 21.02255488 6.00000000
