105.56416666 21.02111112 123.56687164
105.56444443 21.02111112 167.72506714
105.56472221 21.02111112 306.54782104
105.51249999 21.02083334 240.28332520
105.51277777 21.02083334 304.70266724
105.51305554 21.02083334 28.92168045
105.51333332 21.02083334 112.43475342
105.51361110 21.02083334 163.99359131
105.51388888 21.02083334 203.23945618
105.51416666 21.02083334 117.71556091
105.51444443 21.02083334 73.40570068
105.51472221 21.02083334 283.88681030
105.51499999 21.02083334 280.48043823
105.51527777 21.02083334 232.36932373
105.51555554 21.02083334 122.06775665
105.51583332 21.02083334 84.85803223
105.51611110 21.02083334 101.12995148
105.51638888 21.02083334 315.10342407
105.51666666 21.02083334 188.36904907
105.51694443 21.02083334 57.11472321
105.51722221 21.02083334 35.88013458
105.51749999 21.02083334 358.24768066
105.51777777 21.02083334 257.44964600
105.51805554 21.02083334 269.16339111
105.51833332 21.02083334 249.50765991
105.51861110 21.02083334 325.03762817
105.51888888 21.02083334 25.82174683
105.51916666 21.02083334 255.37918091
105.51944443 21.02083334 259.18179321
105.51972221 21.02083334 335.42013550
105.51999999 21.02083334 25.58053207
105.52027777 21.02083334 18.11209679
105.52055554 21.02083334 22.95572472
105.52083332 21.02083334 229.48216248
105.52111110 21.02083334 203.03295898
105.52138888 21.02083334 155.27441406
105.52166666 21.02083334 131.49217224
105.52194443 21.02083334 342.20297241
105.52222221 21.02083334 6.16312885
105.52249999 21.02083334 85.10810852
105.52277777 21.02083334 118.70565796
105.52305554 21.02083334 62.50772095
105.52333332 21.02083334 22.57889175
105.52361110 21.02083334 39.09772110
105.52388888 21.02083334 194.29306030
105.52416666 21.02083334 193.05035400
105.52444443 21.02083334 178.44023132
105.52472221 21.02083334 322.09555054
105.52499999 21.02083334 288.63061523
105.52527777 21.02083334 340.85369873
105.52555554 21.02083334 1.71494257
105.52583332 21.02083334 347.04669189
105.52611110 21.02083334 334.25167847
105.52638888 21.02083334 333.01892090
105.52666666 21.02083334 307.53512573
105.52694443 21.02083334 110.79679108
105.52722221 21.02083334 79.42417145
105.52749999 21.02083334 358.02661133
105.52777777 21.02083334 290.16744995
105.52805554 21.02083334 282.88830566
105.52833332 21.02083334 279.48831177
105.52861110 21.02083334 77.79923248
105.52888888 21.02083334 72.74871063
105.52916666 21.02083334 56.03188705
105.52944443 21.02083334 37.91902542
105.52972221 21.02083334 46.17571640
105.52999999 21.02083334 60.52605820
105.53027777 21.02083334 94.43698883
105.53055554 21.02083334 210.55609131
105.53083332 21.02083334 252.73344421
105.53111110 21.02083334 166.20492554
105.53138888 21.02083334 104.81255341
105.53166666 21.02083334 68.96513367
105.53194443 21.02083334 40.34690475
105.53222221 21.02083334 -0.00000000
105.53249999 21.02083334 256.42532349
105.53277777 21.02083334 297.61233521
105.53305554 21.02083334 333.31112671
105.53333332 21.02083334 356.53717041
105.53361110 21.02083334 335.76245117
105.53388888 21.02083334 344.20971680
105.53416666 21.02083334 38.65913773
105.53444443 21.02083334 71.30204773
105.53472221 21.02083334 127.24033356
105.53499999 21.02083334 180.00000000
105.53527777 21.02083334 244.31503296
105.53555554 21.02083334 320.31057739
105.53583332 21.02083334 70.30661011
105.53611110 21.02083334 90.00000000
105.53638888 21.02083334 -0.00000000
105.53666666 21.02083334 -0.00000000
105.53694443 21.02083334 -0.00000000
105.53722221 21.02083334 -0.00000000
105.53749999 21.02083334 -0.00000000
105.53777777 21.02083334 -0.00000000
105.53805554 21.02083334 -0.00000000
105.53833332 21.02083334 -0.00000000
105.53861110 21.02083334 -0.00000000
105.53888888 21.02083334 -0.00000000
105.53916666 21.02083334 270.00000000
105.53944443 21.02083334 310.82250977
105.53972221 21.02083334 320.43450928
105.53999999 21.02083334 317.53585815
105.54027777 21.02083334 11.98945618
105.54055554 21.02083334 78.18814087
105.54083332 21.02083334 88.54108429
105.54111110 21.02083334 32.32416916
105.54138888 21.02083334 2.79234934
105.54166666 21.02083334 90.00000000
105.54194443 21.02083334 90.00000000
105.54222221 21.02083334 -0.00000000
105.54249999 21.02083334 -0.00000000
105.54277777 21.02083334 -0.00000000
105.54305554 21.02083334 -0.00000000
105.54333332 21.02083334 -0.00000000
105.54361110 21.02083334 -0.00000000
105.54388888 21.02083334 -0.00000000
105.54416666 21.02083334 -0.00000000
105.54444443 21.02083334 -0.00000000
105.54472221 21.02083334 -0.00000000
105.54499999 21.02083334 -0.00000000
105.54527777 21.02083334 -0.00000000
105.54555554 21.02083334 -0.00000000
105.54583332 21.02083334 -0.00000000
105.54611110 21.02083334 -0.00000000
105.54638888 21.02083334 -0.00000000
105.54666666 21.02083334 -0.00000000
105.54694443 21.02083334 -0.00000000
105.54722221 21.02083334 -0.00000000
105.54749999 21.02083334 229.26408386
105.54777777 21.02083334 22.03310966
105.54805554 21.02083334 60.15614319
105.54833332 21.02083334 25.81072807
105.54861110 21.02083334 341.21868896
105.54888888 21.02083334 63.06827164
105.54916666 21.02083334 272.97390747
105.54944443 21.02083334 312.59402466
105.54972221 21.02083334 307.41992188
105.54999999 21.02083334 322.54312134
105.55027777 21.02083334 44.20636749
105.55055554 21.02083334 118.75134277
105.55083332 21.02083334 96.66418457
105.55111110 21.02083334 87.52684784
105.55138888 21.02083334 228.92539978
105.55166666 21.02083334 226.73130798
105.55194443 21.02083334 104.06588745
105.55222221 21.02083334 94.12844849
105.55249999 21.02083334 145.14718628
105.55277777 21.02083334 206.07910156
105.55305554 21.02083334 187.64122009
105.55333332 21.02083334 158.97305298
105.55361110 21.02083334 108.31365204
105.55388888 21.02083334 81.85981750
105.55416666 21.02083334 74.41053772
105.55444443 21.02083334 174.64538574
105.55472221 21.02083334 289.55813599
105.55499999 21.02083334 284.93560791
105.55527777 21.02083334 331.52404785
105.55555554 21.02083334 38.80120850
105.55583332 21.02083334 123.57707214
105.55611110 21.02083334 164.65408325
105.55638888 21.02083334 196.28385925
105.55666666 21.02083334 187.58970642
105.55694443 21.02083334 178.76408386
105.55722221 21.02083334 211.68824768
105.55749999 21.02083334 239.16911316
105.55777777 21.02083334 284.83984375
105.55805554 21.02083334 349.21481323
105.55833332 21.02083334 20.45497131
105.55861110 21.02083334 58.83997345
105.55888888 21.02083334 188.88560486
105.55916666 21.02083334 355.15762329
105.55944443 21.02083334 304.58871460
105.55972221 21.02083334 269.91110229
105.55999999 21.02083334 256.91293335
105.56027777 21.02083334 269.68026733
105.56055554 21.02083334 63.93749619
105.56083332 21.02083334 68.10603333
105.56111110 21.02083334 133.95915222
105.56138888 21.02083334 99.51907349
105.56166666 21.02083334 160.04499817
105.56194443 21.02083334 224.15480042
105.56222221 21.02083334 359.32156372
105.56249999 21.02083334 143.29035950
105.56277777 21.02083334 87.61890411
105.56305554 21.02083334 86.82154846
105.56333332 21.02083334 80.41194916
105.56361110 21.02083334 99.69972992
105.56388888 21.02083334 137.40855408
105.56416666 21.02083334 91.25733185
105.56444443 21.02083334 328.31652832
105.56472221 21.02083334 315.53216553
105.56499999 21.02083334 12.69247055
105.56527777 21.02083334 39.79156494
105.51222221 21.02055557 316.96029663
105.51249999 21.02055557 237.57739258
105.51277777 21.02055557 206.55706787
105.51305554 21.02055557 159.40371704
105.51333332 21.02055557 130.14346313
105.51361110 21.02055557 135.52275085
105.51388888 21.02055557 162.50186157
105.51416666 21.02055557 199.56648254
105.51444443 21.02055557 308.17419434
105.51472221 21.02055557 315.24694824
105.51499999 21.02055557 300.80184937
105.51527777 21.02055557 164.36433411
105.51555554 21.02055557 113.37212372
105.51583332 21.02055557 89.15334320
105.51611110 21.02055557 82.73770905
105.51638888 21.02055557 244.30635071
105.51666666 21.02055557 233.93501282
105.51694443 21.02055557 269.54806519
105.51722221 21.02055557 43.94626236
105.51749999 21.02055557 52.34068680
105.51777777 21.02055557 166.43124390
105.51805554 21.02055557 284.30703735
105.51833332 21.02055557 271.79058838
105.51861110 21.02055557 302.67248535
105.51888888 21.02055557 65.02260590
105.51916666 21.02055557 349.10369873
105.51944443 21.02055557 249.72476196
105.51972221 21.02055557 257.98999023
105.51999999 21.02055557 310.60794067
105.52027777 21.02055557 328.69738770
105.52055554 21.02055557 20.57172775
105.52083332 21.02055557 55.53756332
105.52111110 21.02055557 162.96502686
105.52138888 21.02055557 238.86996460
105.52166666 21.02055557 296.83071899
105.52194443 21.02055557 318.97317505
105.52222221 21.02055557 63.86266708
105.52249999 21.02055557 84.21567535
105.52277777 21.02055557 80.53100586
105.52305554 21.02055557 350.73934937
105.52333332 21.02055557 21.86805725
105.52361110 21.02055557 57.45063400
105.52388888 21.02055557 97.22375488
105.52416666 21.02055557 161.19557190
105.52444443 21.02055557 187.07011414
105.52472221 21.02055557 263.70455933
105.52499999 21.02055557 300.91131592
105.52527777 21.02055557 308.02728271
105.52555554 21.02055557 323.32424927
105.52583332 21.02055557 353.58166504
105.52611110 21.02055557 30.73726273
105.52638888 21.02055557 91.70106506
105.52666666 21.02055557 115.96441650
105.52694443 21.02055557 140.74754333
105.52722221 21.02055557 26.82539368
105.52749999 21.02055557 332.83074951
105.52777777 21.02055557 291.12487793
105.52805554 21.02055557 247.31213379
105.52833332 21.02055557 198.10693359
105.52861110 21.02055557 182.53610229
105.52888888 21.02055557 96.49757385
105.52916666 21.02055557 33.31974792
105.52944443 21.02055557 30.62567520
105.52972221 21.02055557 61.35856628
105.52999999 21.02055557 62.13000488
105.53027777 21.02055557 64.23821259
105.53055554 21.02055557 151.14350891
105.53083332 21.02055557 133.88006592
105.53111110 21.02055557 7.53270292
105.53138888 21.02055557 344.16137695
105.53166666 21.02055557 3.15368342
105.53194443 21.02055557 10.65811634
105.53222221 21.02055557 13.03979969
105.53249999 21.02055557 286.86294556
105.53277777 21.02055557 288.37115479
105.53305554 21.02055557 317.97042847
105.53333332 21.02055557 9.01964664
105.53361110 21.02055557 339.57980347
105.53388888 21.02055557 334.56900024
105.53416666 21.02055557 68.42569733
105.53444443 21.02055557 80.66264343
105.53472221 21.02055557 90.00000000
105.53499999 21.02055557 -0.00000000
105.53527777 21.02055557 270.00000000
105.53555554 21.02055557 202.32745361
105.53583332 21.02055557 105.03380585
105.53611110 21.02055557 90.00000000
105.53638888 21.02055557 -0.00000000
105.53666666 21.02055557 -0.00000000
105.53694443 21.02055557 -0.00000000
105.53722221 21.02055557 -0.00000000
105.53749999 21.02055557 -0.00000000
105.53777777 21.02055557 -0.00000000
105.53805554 21.02055557 -0.00000000
105.53833332 21.02055557 -0.00000000
105.53861110 21.02055557 -0.00000000
105.53888888 21.02055557 -0.00000000
105.53916666 21.02055557 311.96707153
105.53944443 21.02055557 282.74948120
105.53972221 21.02055557 304.59204102
105.53999999 21.02055557 330.38821411
105.54027777 21.02055557 148.29621887
105.54055554 21.02055557 97.75706482
105.54083332 21.02055557 94.04891968
105.54111110 21.02055557 32.93770599
105.54138888 21.02055557 87.28771210
105.54166666 21.02055557 111.56250763
105.54194443 21.02055557 -0.00000000
105.54222221 21.02055557 -0.00000000
105.54249999 21.02055557 -0.00000000
105.54277777 21.02055557 -0.00000000
105.54305554 21.02055557 -0.00000000
105.54333332 21.02055557 -0.00000000
105.54361110 21.02055557 -0.00000000
105.54388888 21.02055557 -0.00000000
105.54416666 21.02055557 -0.00000000
105.54444443 21.02055557 -0.00000000
105.54472221 21.02055557 -0.00000000
105.54499999 21.02055557 -0.00000000
105.54527777 21.02055557 -0.00000000
105.54555554 21.02055557 -0.00000000
105.54583332 21.02055557 -0.00000000
105.54611110 21.02055557 -0.00000000
105.54638888 21.02055557 -0.00000000
105.54666666 21.02055557 -0.00000000
105.54694443 21.02055557 -0.00000000
105.54722221 21.02055557 -0.00000000
105.54749999 21.02055557 -0.00000000
105.54777777 21.02055557 180.00000000
105.54805554 21.02055557 303.84725952
105.54833332 21.02055557 32.89481354
105.54861110 21.02055557 49.31501389
105.54888888 21.02055557 83.12853241
105.54916666 21.02055557 274.60247803
105.54944443 21.02055557 282.69265747
105.54972221 21.02055557 291.28936768
105.54999999 21.02055557 356.67272949
105.55027777 21.02055557 81.37860870
105.55055554 21.02055557 105.63536835
105.55083332 21.02055557 70.25173187
105.55111110 21.02055557 354.08526611
105.55138888 21.02055557 8.44426727
105.55166666 21.02055557 353.86145020
105.55194443 21.02055557 131.87332153
105.55222221 21.02055557 106.60297394
105.55249999 21.02055557 68.08146667
105.55277777 21.02055557 328.02572632
105.55305554 21.02055557 334.55877686
105.55333332 21.02055557 254.94993591
105.55361110 21.02055557 345.57397461
105.55388888 21.02055557 25.02560806
105.55416666 21.02055557 41.27552795
105.55444443 21.02055557 334.22021484
105.55472221 21.02055557 302.31784058
105.55499999 21.02055557 282.38137817
105.55527777 21.02055557 258.64401245
105.55555554 21.02055557 94.42218018
105.55583332 21.02055557 111.67464447
105.55611110 21.02055557 146.47930908
105.55638888 21.02055557 214.96037292
105.55666666 21.02055557 212.68861389
105.55694443 21.02055557 197.27030945
105.55722221 21.02055557 193.39582825
105.55749999 21.02055557 280.03356934
105.55777777 21.02055557 275.34335327
105.55805554 21.02055557 315.86636353
105.55833332 21.02055557 60.54096985
105.55861110 21.02055557 75.53517914
105.55888888 21.02055557 152.11920166
105.55916666 21.02055557 311.40533447
105.55944443 21.02055557 322.20816040
105.55972221 21.02055557 272.26455688
105.55999999 21.02055557 268.29010010
105.56027777 21.02055557 173.86694336
105.56055554 21.02055557 161.74307251
105.56083332 21.02055557 155.80465698
105.56111110 21.02055557 163.70103455
105.56138888 21.02055557 164.89033508
105.56166666 21.02055557 171.71549988
105.56194443 21.02055557 251.17449951
105.56222221 21.02055557 237.43334961
105.56249999 21.02055557 113.53536987
105.56277777 21.02055557 146.45108032
105.56305554 21.02055557 99.15327454
105.56333332 21.02055557 78.80809784
105.56361110 21.02055557 63.60448456
105.56388888 21.02055557 1.12580729
105.56416666 21.02055557 278.05746460
105.56444443 21.02055557 300.45104980
105.56472221 21.02055557 276.39688110
105.56499999 21.02055557 148.24287415
105.56527777 21.02055557 94.92184448
105.56555554 21.02055557 259.43688965
105.56583332 21.02055557 266.51663208
105.56611110 21.02055557 273.77203369
105.51194443 21.02027779 54.36190414
105.51222221 21.02027779 50.70067978
105.51249999 21.02027779 32.80624390
105.51277777 21.02027779 72.85037994
105.51305554 21.02027779 90.81752777
105.51333332 21.02027779 84.50949860
105.51361110 21.02027779 357.28271484
105.51388888 21.02027779 324.61614990
105.51416666 21.02027779 319.74050903
105.51444443 21.02027779 276.94891357
105.51472221 21.02027779 243.60125732
105.51499999 21.02027779 201.97164917
105.51527777 21.02027779 160.57319641
105.51555554 21.02027779 135.51309204
105.51583332 21.02027779 119.32475281
105.51611110 21.02027779 75.80759430
105.51638888 21.02027779 93.32923889
105.51666666 21.02027779 245.79307556
105.51694443 21.02027779 114.01509094
105.51722221 21.02027779 202.13156128
105.51749999 21.02027779 58.57682800
105.51777777 21.02027779 34.57571411
105.51805554 21.02027779 270.67803955
105.51833332 21.02027779 300.16555786
105.51861110 21.02027779 278.69647217
105.51888888 21.02027779 101.92445374
105.51916666 21.02027779 300.48544312
105.51944443 21.02027779 295.80221558
105.51972221 21.02027779 271.99523926
105.51999999 21.02027779 271.97869873
105.52027777 21.02027779 180.95634460
105.52055554 21.02027779 167.01536560
105.52083332 21.02027779 69.78370667
105.52111110 21.02027779 356.04205322
105.52138888 21.02027779 333.44638062
105.52166666 21.02027779 325.37069702
105.52194443 21.02027779 335.18164062
105.52222221 21.02027779 53.36684418
105.52249999 21.02027779 34.54157639
105.52277777 21.02027779 12.35969543
105.52305554 21.02027779 4.93912125
105.52333332 21.02027779 6.69936609
105.52361110 21.02027779 14.06176758
105.52388888 21.02027779 60.06215286
105.52416666 21.02027779 119.33717346
105.52444443 21.02027779 249.81929016
105.52472221 21.02027779 291.91287231
105.52499999 21.02027779 316.82751465
105.52527777 21.02027779 339.12533569
105.52555554 21.02027779 33.73092270
105.52583332 21.02027779 273.44287109
105.52611110 21.02027779 155.25914001
105.52638888 21.02027779 127.14287567
105.52666666 21.02027779 116.54861450
105.52694443 21.02027779 37.54562378
105.52722221 21.02027779 19.59121323
105.52749999 21.02027779 349.36645508
105.52777777 21.02027779 239.57333374
105.52805554 21.02027779 223.30541992
105.52833332 21.02027779 219.35577393
105.52861110 21.02027779 252.13085938
105.52888888 21.02027779 270.28179932
105.52916666 21.02027779 330.72177124
105.52944443 21.02027779 78.05405426
105.52972221 21.02027779 91.96048737
105.52999999 21.02027779 62.43242645
105.53027777 21.02027779 65.30849457
105.53055554 21.02027779 83.67331696
105.53083332 21.02027779 305.88278198
105.53111110 21.02027779 330.42071533
105.53138888 21.02027779 324.50100708
105.53166666 21.02027779 341.56765747
105.53194443 21.02027779 3.49414635
105.53222221 21.02027779 50.38098526
105.53249999 21.02027779 26.07168007
105.53277777 21.02027779 265.58221436
105.53305554 21.02027779 274.94735718
105.53333332 21.02027779 342.51580811
105.53361110 21.02027779 336.61221313
105.53388888 21.02027779 356.68194580
105.53416666 21.02027779 79.70401001
105.53444443 21.02027779 72.74405670
105.53472221 21.02027779 57.00044250
105.53499999 21.02027779 -0.00000000
105.53527777 21.02027779 -0.00000000
105.53555554 21.02027779 180.00000000
105.53583332 21.02027779 180.00000000
105.53611110 21.02027779 -0.00000000
105.53638888 21.02027779 -0.00000000
105.53666666 21.02027779 -0.00000000
105.53694443 21.02027779 -0.00000000
105.53722221 21.02027779 -0.00000000
105.53749999 21.02027779 -0.00000000
105.53777777 21.02027779 -0.00000000
105.53805554 21.02027779 -0.00000000
105.53833332 21.02027779 -0.00000000
105.53861110 21.02027779 322.03250122
105.53888888 21.02027779 322.61721802
105.53916666 21.02027779 357.60928345
105.53944443 21.02027779 292.92111206
105.53972221 21.02027779 269.31265259
105.53999999 21.02027779 138.08381653
105.54027777 21.02027779 133.97911072
105.54055554 21.02027779 122.03311920
105.54083332 21.02027779 121.85639191
105.54111110 21.02027779 136.11480713
105.54138888 21.02027779 133.53869629
105.54166666 21.02027779 90.00000000
105.54194443 21.02027779 -0.00000000
105.54222221 21.02027779 -0.00000000
105.54249999 21.02027779 -0.00000000
105.54277777 21.02027779 -0.00000000
105.54305554 21.02027779 -0.00000000
105.54333332 21.02027779 -0.00000000
105.54361110 21.02027779 -0.00000000
105.54388888 21.02027779 -0.00000000
105.54416666 21.02027779 -0.00000000
105.54444443 21.02027779 -0.00000000
105.54472221 21.02027779 -0.00000000
105.54499999 21.02027779 -0.00000000
105.54527777 21.02027779 -0.00000000
105.54555554 21.02027779 -0.00000000
105.54583332 21.02027779 -0.00000000
105.54611110 21.02027779 -0.00000000
105.54638888 21.02027779 -0.00000000
105.54666666 21.02027779 -0.00000000
105.54694443 21.02027779 -0.00000000
105.54722221 21.02027779 -0.00000000
105.54749999 21.02027779 -0.00000000
105.54777777 21.02027779 -0.00000000
105.54805554 21.02027779 -0.00000000
105.54833332 21.02027779 230.62152100
105.54861110 21.02027779 55.88707733
105.54888888 21.02027779 54.93107986
105.54916666 21.02027779 298.04739380
105.54944443 21.02027779 252.05686951
105.54972221 21.02027779 254.96260071
105.54999999 21.02027779 227.76419067
105.55027777 21.02027779 93.99618530
105.55055554 21.02027779 44.14591980
105.55083332 21.02027779 330.05670166
105.55111110 21.02027779 331.40002441
105.55138888 21.02027779 62.61010361
105.55166666 21.02027779 46.63844299
105.55194443 21.02027779 82.78303528
105.55222221 21.02027779 58.33837128
105.55249999 21.02027779 344.44281006
105.55277777 21.02027779 324.26876831
105.55305554 21.02027779 20.95592880
105.55333332 21.02027779 343.45690918
105.55361110 21.02027779 328.30673218
105.55388888 21.02027779 41.12810135
105.55416666 21.02027779 77.61183929
105.55444443 21.02027779 87.91444397
105.55472221 21.02027779 254.69544983
105.55499999 21.02027779 233.40544128
105.55527777 21.02027779 177.58322144
105.55555554 21.02027779 107.53309631
105.55583332 21.02027779 89.42560577
105.55611110 21.02027779 75.56292725
105.55638888 21.02027779 186.46615601
105.55666666 21.02027779 181.84977722
105.55694443 21.02027779 210.77359009
105.55722221 21.02027779 236.20538330
105.55749999 21.02027779 251.84184265
105.55777777 21.02027779 259.66848755
105.55805554 21.02027779 252.05937195
105.55833332 21.02027779 100.10643005
105.55861110 21.02027779 82.54406738
105.55888888 21.02027779 320.26925659
105.55916666 21.02027779 294.42211914
105.55944443 21.02027779 338.50927734
105.55972221 21.02027779 348.32104492
105.55999999 21.02027779 176.93534851
105.56027777 21.02027779 155.28379822
105.56055554 21.02027779 144.01643372
105.56083332 21.02027779 145.58288574
105.56111110 21.02027779 155.92094421
105.56138888 21.02027779 181.01988220
105.56166666 21.02027779 231.31005859
105.56194443 21.02027779 252.49362183
105.56222221 21.02027779 185.20880127
105.56249999 21.02027779 121.73992920
105.56277777 21.02027779 142.82250977
105.56305554 21.02027779 122.36198425
105.56333332 21.02027779 55.22137451
105.56361110 21.02027779 18.54327965
105.56388888 21.02027779 9.02282524
105.56416666 21.02027779 357.56008911
105.56444443 21.02027779 245.06712341
105.56472221 21.02027779 162.38279724
105.56499999 21.02027779 165.69905090
105.56527777 21.02027779 190.85713196
105.56555554 21.02027779 285.97097778
105.56583332 21.02027779 295.41589355
105.56611110 21.02027779 273.14337158
105.56638888 21.02027779 165.81640625
105.56666666 21.02027779 122.90388489
105.51138888 21.02000001 43.01556015
105.51166666 21.02000001 75.77513123
105.51194443 21.02000001 117.71045685
105.51222221 21.02000001 357.38076782
105.51249999 21.02000001 30.21520424
105.51277777 21.02000001 36.45990372
105.51305554 21.02000001 31.51220131
105.51333332 21.02000001 41.38632202
105.51361110 21.02000001 13.87941742
105.51388888 21.02000001 3.19962263
105.51416666 21.02000001 32.33728409
105.51444443 21.02000001 149.05114746
105.51472221 21.02000001 187.51893616
105.51499999 21.02000001 177.31376648
105.51527777 21.02000001 167.43687439
105.51555554 21.02000001 173.37802124
105.51583332 21.02000001 155.07516479
105.51611110 21.02000001 154.66157532
105.51638888 21.02000001 34.39676285
105.51666666 21.02000001 301.30352783
105.51694443 21.02000001 32.11107254
105.51722221 21.02000001 334.54217529
105.51749999 21.02000001 188.41978455
105.51777777 21.02000001 31.04529190
105.51805554 21.02000001 298.35995483
105.51833332 21.02000001 300.43188477
105.51861110 21.02000001 48.76687241
105.51888888 21.02000001 97.12942505
105.51916666 21.02000001 286.34039307
105.51944443 21.02000001 291.46987915
105.51972221 21.02000001 304.01593018
105.51999999 21.02000001 44.52166367
105.52027777 21.02000001 88.22659302
105.52055554 21.02000001 266.32431030
105.52083332 21.02000001 286.56680298
105.52111110 21.02000001 279.28042603
105.52138888 21.02000001 301.45989990
105.52166666 21.02000001 320.14257812
105.52194443 21.02000001 251.97906494
105.52222221 21.02000001 303.94436646
105.52249999 21.02000001 13.16177750
105.52277777 21.02000001 14.19381142
105.52305554 21.02000001 18.83310318
105.52333332 21.02000001 26.23542595
105.52361110 21.02000001 38.61660004
105.52388888 21.02000001 38.72623444
105.52416666 21.02000001 35.46191406
105.52444443 21.02000001 287.89614868
105.52472221 21.02000001 286.68289185
105.52499999 21.02000001 305.14038086
105.52527777 21.02000001 337.98144531
105.52555554 21.02000001 46.23068237
105.52583332 21.02000001 68.63264465
105.52611110 21.02000001 107.43052673
105.52638888 21.02000001 101.38301086
105.52666666 21.02000001 239.62867737
105.52694443 21.02000001 305.29394531
105.52722221 21.02000001 37.33636093
105.52749999 21.02000001 20.93473816
105.52777777 21.02000001 327.18823242
105.52805554 21.02000001 271.34054565
105.52833332 21.02000001 288.48355103
105.52861110 21.02000001 285.62545776
105.52888888 21.02000001 251.93658447
105.52916666 21.02000001 173.34451294
105.52944443 21.02000001 145.09890747
105.52972221 21.02000001 136.95172119
105.52999999 21.02000001 111.11592865
105.53027777 21.02000001 103.23708344
105.53055554 21.02000001 61.00098801
105.53083332 21.02000001 298.97335815
105.53111110 21.02000001 326.55410767
105.53138888 21.02000001 57.22666550
105.53166666 21.02000001 336.30816650
105.53194443 21.02000001 83.98522949
105.53222221 21.02000001 74.57666779
105.53249999 21.02000001 48.66158676
105.53277777 21.02000001 256.11874390
105.53305554 21.02000001 270.04571533
105.53333332 21.02000001 296.66265869
105.53361110 21.02000001 323.03683472
105.53388888 21.02000001 19.41185951
105.53416666 21.02000001 68.63855743
105.53444443 21.02000001 49.55889893
105.53472221 21.02000001 41.47647476
105.53499999 21.02000001 33.74750519
105.53527777 21.02000001 -0.00000000
105.53555554 21.02000001 -0.00000000
105.53583332 21.02000001 -0.00000000
105.53611110 21.02000001 333.10266113
105.53638888 21.02000001 342.12387085
105.53666666 21.02000001 11.63808918
105.53694443 21.02000001 352.59033203
105.53722221 21.02000001 345.70294189
105.53749999 21.02000001 1.25747859
105.53777777 21.02000001 6.87298298
105.53805554 21.02000001 339.29348755
105.53833332 21.02000001 324.52560425
105.53861110 21.02000001 343.79641724
105.53888888 21.02000001 115.50691986
105.53916666 21.02000001 43.70301056
105.53944443 21.02000001 300.80944824
105.53972221 21.02000001 264.52053833
105.53999999 21.02000001 98.59883881
105.54027777 21.02000001 115.84108734
105.54055554 21.02000001 135.09010315
105.54083332 21.02000001 128.63626099
105.54111110 21.02000001 135.02119446
105.54138888 21.02000001 139.44764709
105.54166666 21.02000001 -0.00000000
105.54194443 21.02000001 -0.00000000
105.54222221 21.02000001 -0.00000000
105.54249999 21.02000001 -0.00000000
105.54277777 21.02000001 -0.00000000
105.54305554 21.02000001 -0.00000000
105.54333332 21.02000001 -0.00000000
105.54361110 21.02000001 -0.00000000
105.54388888 21.02000001 -0.00000000
105.54416666 21.02000001 -0.00000000
105.54444443 21.02000001 -0.00000000
105.54472221 21.02000001 -0.00000000
105.54499999 21.02000001 -0.00000000
105.54527777 21.02000001 -0.00000000
105.54555554 21.02000001 -0.00000000
105.54583332 21.02000001 -0.00000000
105.54611110 21.02000001 -0.00000000
105.54638888 21.02000001 -0.00000000
105.54666666 21.02000001 -0.00000000
105.54694443 21.02000001 -0.00000000
105.54722221 21.02000001 -0.00000000
105.54749999 21.02000001 -0.00000000
105.54777777 21.02000001 -0.00000000
105.54805554 21.02000001 -0.00000000
105.54833332 21.02000001 -0.00000000
105.54861110 21.02000001 180.00000000
105.54888888 21.02000001 357.15557861
105.54916666 21.02000001 334.15264893
105.54944443 21.02000001 265.12399292
105.54972221 21.02000001 255.31404114
105.54999999 21.02000001 217.34335327
105.55027777 21.02000001 47.41669464
105.55055554 21.02000001 13.17541981
105.55083332 21.02000001 48.47971344
105.55111110 21.02000001 85.67732239
105.55138888 21.02000001 162.55422974
105.55166666 21.02000001 165.78805542
105.55194443 21.02000001 124.27875519
105.55222221 21.02000001 123.39773560
105.55249999 21.02000001 150.86811829
105.55277777 21.02000001 184.58280945
105.55305554 21.02000001 193.11401367
105.55333332 21.02000001 265.55493164
105.55361110 21.02000001 223.09558105
105.55388888 21.02000001 127.30466461
105.55416666 21.02000001 116.64472198
105.55444443 21.02000001 99.82836151
105.55472221 21.02000001 203.89273071
105.55499999 21.02000001 217.11692810
105.55527777 21.02000001 214.89228821
105.55555554 21.02000001 163.96293640
105.55583332 21.02000001 98.55913544
105.55611110 21.02000001 87.39072418
105.55638888 21.02000001 102.79868317
105.55666666 21.02000001 75.24868011
105.55694443 21.02000001 197.88023376
105.55722221 21.02000001 234.25807190
105.55749999 21.02000001 236.85165405
105.55777777 21.02000001 251.26919556
105.55805554 21.02000001 213.80807495
105.55833332 21.02000001 159.24247742
105.55861110 21.02000001 140.95426941
105.55888888 21.02000001 287.90194702
105.55916666 21.02000001 262.72952271
105.55944443 21.02000001 269.01770020
105.55972221 21.02000001 86.30415344
105.55999999 21.02000001 136.04521179
105.56027777 21.02000001 152.85572815
105.56055554 21.02000001 145.54206848
105.56083332 21.02000001 147.15687561
105.56111110 21.02000001 167.38198853
105.56138888 21.02000001 223.78248596
105.56166666 21.02000001 272.34298706
105.56194443 21.02000001 243.16557312
105.56222221 21.02000001 185.27668762
105.56249999 21.02000001 178.53038025
105.56277777 21.02000001 150.15467834
105.56305554 21.02000001 55.46864700
105.56333332 21.02000001 312.88021851
105.56361110 21.02000001 327.33193970
105.56388888 21.02000001 38.95321655
105.56416666 21.02000001 53.87517166
105.56444443 21.02000001 46.34700394
105.56472221 21.02000001 22.32153320
105.56499999 21.02000001 355.33880615
105.56527777 21.02000001 333.50149536
105.56555554 21.02000001 310.66104126
105.56583332 21.02000001 316.20629883
105.56611110 21.02000001 327.38943481
105.56638888 21.02000001 97.88945770
105.56666666 21.02000001 121.40740967
105.56694443 21.02000001 95.36572266
105.56722221 21.02000001 249.65399170
105.51111110 21.01972223 254.44709778
105.51138888 21.01972223 280.37158203
105.51166666 21.01972223 49.68132019
105.51194443 21.01972223 84.70847321
105.51222221 21.01972223 111.43180084
105.51249999 21.01972223 122.14411163
105.51277777 21.01972223 168.16929626
105.51305554 21.01972223 148.97399902
105.51333332 21.01972223 69.85749817
105.51361110 21.01972223 14.60266972
105.51388888 21.01972223 16.53152275
105.51416666 21.01972223 67.42191315
105.51444443 21.01972223 318.68676758
105.51472221 21.01972223 60.81234360
105.51499999 21.01972223 133.09153748
105.51527777 21.01972223 160.26737976
105.51555554 21.01972223 99.76016998
105.51583332 21.01972223 146.36584473
105.51611110 21.01972223 173.40635681
105.51638888 21.01972223 284.95071411
105.51666666 21.01972223 324.66934204
105.51694443 21.01972223 25.94164848
105.51722221 21.01972223 16.94764519
105.51749999 21.01972223 8.02234459
105.51777777 21.01972223 314.09832764
105.51805554 21.01972223 307.11401367
105.51833332 21.01972223 282.64593506
105.51861110 21.01972223 141.12934875
105.51888888 21.01972223 60.25652695
105.51916666 21.01972223 296.05831909
105.51944443 21.01972223 271.13858032
105.51972221 21.01972223 278.40301514
105.51999999 21.01972223 181.53390503
105.52027777 21.01972223 28.86840248
105.52055554 21.01972223 341.93789673
105.52083332 21.01972223 9.10842896
105.52111110 21.01972223 225.77882385
105.52138888 21.01972223 251.66250610
105.52166666 21.01972223 183.24484253
105.52194443 21.01972223 166.60881042
105.52222221 21.01972223 190.05230713
105.52249999 21.01972223 203.14414978
105.52277777 21.01972223 196.32292175
105.52305554 21.01972223 167.96267700
105.52333332 21.01972223 116.74462128
105.52361110 21.01972223 23.22198105
105.52388888 21.01972223 42.84018707
105.52416666 21.01972223 53.71961975
105.52444443 21.01972223 285.55792236
105.52472221 21.01972223 274.64880371
105.52499999 21.01972223 269.58047485
105.52527777 21.01972223 158.04763794
105.52555554 21.01972223 140.78350830
105.52583332 21.01972223 133.87841797
105.52611110 21.01972223 125.69818878
105.52638888 21.01972223 104.12696075
105.52666666 21.01972223 277.46795654
105.52694443 21.01972223 249.82334900
105.52722221 21.01972223 291.72717285
105.52749999 21.01972223 351.42581177
105.52777777 21.01972223 348.43725586
105.52805554 21.01972223 311.26370239
105.52833332 21.01972223 284.77511597
105.52861110 21.01972223 198.49545288
105.52888888 21.01972223 142.15762329
105.52916666 21.01972223 145.88931274
105.52944443 21.01972223 164.68937683
105.52972221 21.01972223 171.92146301
105.52999999 21.01972223 140.82482910
105.53027777 21.01972223 127.62464905
105.53055554 21.01972223 291.71356201
105.53083332 21.01972223 303.65335083
105.53111110 21.01972223 234.10783386
105.53138888 21.01972223 306.40640259
105.53166666 21.01972223 352.13589478
105.53194443 21.01972223 76.73937988
105.53222221 21.01972223 86.96969604
105.53249999 21.01972223 88.41263580
105.53277777 21.01972223 295.87951660
105.53305554 21.01972223 285.30984497
105.53333332 21.01972223 287.21765137
105.53361110 21.01972223 282.99826050
105.53388888 21.01972223 264.36367798
105.53416666 21.01972223 48.97200775
105.53444443 21.01972223 43.49380112
105.53472221 21.01972223 47.14233017
105.53499999 21.01972223 53.56851196
105.53527777 21.01972223 75.65281677
105.53555554 21.01972223 302.12786865
105.53583332 21.01972223 311.13183594
105.53611110 21.01972223 342.87338257
105.53638888 21.01972223 15.19428062
105.53666666 21.01972223 15.54874611
105.53694443 21.01972223 7.57362270
105.53722221 21.01972223 6.39523649
105.53749999 21.01972223 335.58865356
105.53777777 21.01972223 328.03506470
105.53805554 21.01972223 16.25646973
105.53833332 21.01972223 122.01860809
105.53861110 21.01972223 152.25744629
105.53888888 21.01972223 191.10798645
105.53916666 21.01972223 246.50207520
105.53944443 21.01972223 294.27416992
105.53972221 21.01972223 242.79553223
105.53999999 21.01972223 131.59931946
105.54027777 21.01972223 121.16461945
105.54055554 21.01972223 138.91987610
105.54083332 21.01972223 136.72094727
105.54111110 21.01972223 138.19963074
105.54138888 21.01972223 -0.00000000
105.54166666 21.01972223 -0.00000000
105.54194443 21.01972223 -0.00000000
105.54222221 21.01972223 -0.00000000
105.54249999 21.01972223 -0.00000000
105.54277777 21.01972223 -0.00000000
105.54305554 21.01972223 -0.00000000
105.54333332 21.01972223 -0.00000000
105.54361110 21.01972223 -0.00000000
105.54388888 21.01972223 -0.00000000
105.54416666 21.01972223 -0.00000000
105.54444443 21.01972223 -0.00000000
105.54472221 21.01972223 -0.00000000
105.54499999 21.01972223 -0.00000000
105.54527777 21.01972223 -0.00000000
105.54555554 21.01972223 -0.00000000
105.54583332 21.01972223 -0.00000000
105.54611110 21.01972223 -0.00000000
105.54638888 21.01972223 -0.00000000
105.54666666 21.01972223 -0.00000000
105.54694443 21.01972223 -0.00000000
105.54722221 21.01972223 -0.00000000
105.54749999 21.01972223 -0.00000000
105.54777777 21.01972223 -0.00000000
105.54805554 21.01972223 -0.00000000
105.54833332 21.01972223 -0.00000000
105.54861110 21.01972223 -0.00000000
105.54888888 21.01972223 -0.00000000
105.54916666 21.01972223 267.59637451
105.54944443 21.01972223 292.51461792
105.54972221 21.01972223 261.33410645
105.54999999 21.01972223 239.73092651
105.55027777 21.01972223 110.82839203
105.55055554 21.01972223 114.02516937
105.55083332 21.01972223 183.42156982
105.55111110 21.01972223 115.75528717
105.55138888 21.01972223 90.15686798
105.55166666 21.01972223 110.48940277
105.55194443 21.01972223 109.22312164
105.55222221 21.01972223 116.79776001
105.55249999 21.01972223 107.65998840
105.55277777 21.01972223 226.05706787
105.55305554 21.01972223 259.81072998
105.55333332 21.01972223 261.34188843
105.55361110 21.01972223 161.35691833
105.55388888 21.01972223 138.34745789
105.55416666 21.01972223 122.38291931
105.55444443 21.01972223 54.54967499
105.55472221 21.01972223 355.16458130
105.55499999 21.01972223 332.72872925
105.55527777 21.01972223 253.00665283
105.55555554 21.01972223 217.04678345
105.55583332 21.01972223 129.14573669
105.55611110 21.01972223 72.89843750
105.55638888 21.01972223 347.79846191
105.55666666 21.01972223 36.43459702
105.55694443 21.01972223 249.29833984
105.55722221 21.01972223 308.38854980
105.55749999 21.01972223 298.06210327
105.55777777 21.01972223 275.02774048
105.55805554 21.01972223 167.30120850
105.55833332 21.01972223 165.75228882
105.55861110 21.01972223 208.29605103
105.55888888 21.01972223 253.77250671
105.55916666 21.01972223 237.91912842
105.55944443 21.01972223 226.89682007
105.55972221 21.01972223 130.59869385
105.55999999 21.01972223 124.19422913
105.56027777 21.01972223 134.91865540
105.56055554 21.01972223 162.42419434
105.56083332 21.01972223 136.40435791
105.56111110 21.01972223 187.83158875
105.56138888 21.01972223 271.40087891
105.56166666 21.01972223 264.76547241
105.56194443 21.01972223 159.00341797
105.56222221 21.01972223 143.33125305
105.56249999 21.01972223 191.68019104
105.56277777 21.01972223 276.36932373
105.56305554 21.01972223 297.40859985
105.56333332 21.01972223 11.14307117
105.56361110 21.01972223 277.67504883
105.56388888 21.01972223 354.91107178
105.56416666 21.01972223 27.02916145
105.56444443 21.01972223 15.98578835
105.56472221 21.01972223 12.75414848
105.56499999 21.01972223 0.72513545
105.56527777 21.01972223 346.13168335
105.56555554 21.01972223 334.46566772
105.56583332 21.01972223 319.53707886
105.56611110 21.01972223 359.13723755
105.56638888 21.01972223 87.18220520
105.56666666 21.01972223 105.60477448
105.56694443 21.01972223 102.31127930
105.56722221 21.01972223 268.13674927
105.56749999 21.01972223 223.07362366
105.56777777 21.01972223 56.22706604
105.56805554 21.01972223 49.47483444
105.51083332 21.01944446 258.39166260
105.51111110 21.01944446 286.13400269
105.51138888 21.01944446 240.60231018
105.51166666 21.01944446 68.19602203
105.51194443 21.01944446 70.90306091
105.51222221 21.01944446 108.82975006
105.51249999 21.01944446 70.64488983
105.51277777 21.01944446 85.10900116
105.51305554 21.01944446 208.12931824
105.51333332 21.01944446 328.36810303
105.51361110 21.01944446 357.45639038
105.51388888 21.01944446 34.03285980
105.51416666 21.01944446 42.01913071
105.51444443 21.01944446 357.12258911
105.51472221 21.01944446 106.12866974
105.51499999 21.01944446 115.74078369
105.51527777 21.01944446 138.80456543
105.51555554 21.01944446 39.11666107
105.51583332 21.01944446 71.28953552
105.51611110 21.01944446 279.08172607
105.51638888 21.01944446 246.26101685
105.51666666 21.01944446 226.70748901
105.51694443 21.01944446 277.21606445
105.51722221 21.01944446 350.55090332
105.51749999 21.01944446 356.40698242
105.51777777 21.01944446 332.17288208
105.51805554 21.01944446 315.75753784
105.51833332 21.01944446 328.83367920
105.51861110 21.01944446 177.44120789
105.51888888 21.01944446 355.34136963
105.51916666 21.01944446 327.46069336
105.51944443 21.01944446 263.58245850
105.51972221 21.01944446 190.96374512
105.51999999 21.01944446 203.40907288
105.52027777 21.01944446 272.92263794
105.52055554 21.01944446 232.86045837
105.52083332 21.01944446 115.82324219
105.52111110 21.01944446 282.46206665
105.52138888 21.01944446 239.97689819
105.52166666 21.01944446 143.24940491
105.52194443 21.01944446 106.68017578
105.52222221 21.01944446 163.98814392
105.52249999 21.01944446 204.88330078
105.52277777 21.01944446 194.77571106
105.52305554 21.01944446 205.16160583
105.52333332 21.01944446 222.95680237
105.52361110 21.01944446 208.67825317
105.52388888 21.01944446 112.85450745
105.52416666 21.01944446 72.53049469
105.52444443 21.01944446 75.08794403
105.52472221 21.01944446 259.15676880
105.52499999 21.01944446 220.73440552
105.52527777 21.01944446 151.21141052
105.52555554 21.01944446 140.29443359
105.52583332 21.01944446 174.99766541
105.52611110 21.01944446 193.35150146
105.52638888 21.01944446 206.62503052
105.52666666 21.01944446 227.43595886
105.52694443 21.01944446 297.15380859
105.52722221 21.01944446 299.41516113
105.52749999 21.01944446 301.79943848
105.52777777 21.01944446 334.77874756
105.52805554 21.01944446 354.36965942
105.52833332 21.01944446 353.00115967
105.52861110 21.01944446 140.07991028
105.52888888 21.01944446 142.15264893
105.52916666 21.01944446 148.97561646
105.52944443 21.01944446 139.41853333
105.52972221 21.01944446 151.79037476
105.52999999 21.01944446 180.00000000
105.53027777 21.01944446 329.24890137
105.53055554 21.01944446 303.12677002
105.53083332 21.01944446 296.95471191
105.53111110 21.01944446 353.60940552
105.53138888 21.01944446 336.95761108
105.53166666 21.01944446 355.34930420
105.53194443 21.01944446 53.17794037
105.53222221 21.01944446 117.94407654
105.53249999 21.01944446 0.15373835
105.53277777 21.01944446 313.05053711
105.53305554 21.01944446 304.62356567
105.53333332 21.01944446 305.43380737
105.53361110 21.01944446 230.28588867
105.53388888 21.01944446 186.20642090
105.53416666 21.01944446 154.43286133
105.53444443 21.01944446 150.33877563
105.53472221 21.01944446 126.90955353
105.53499999 21.01944446 89.19795990
105.53527777 21.01944446 45.43432236
105.53555554 21.01944446 315.50161743
105.53583332 21.01944446 296.98580933
105.53611110 21.01944446 31.34573936
105.53638888 21.01944446 43.29380417
105.53666666 21.01944446 18.24090576
105.53694443 21.01944446 303.03851318
105.53722221 21.01944446 76.32869720
105.53749999 21.01944446 113.35570526
105.53777777 21.01944446 165.83982849
105.53805554 21.01944446 144.45866394
105.53833332 21.01944446 153.11105347
105.53861110 21.01944446 170.60279846
105.53888888 21.01944446 195.44367981
105.53916666 21.01944446 232.43342590
105.53944443 21.01944446 242.54986572
105.53972221 21.01944446 156.13493347
105.53999999 21.01944446 148.70257568
105.54027777 21.01944446 132.46763611
105.54055554 21.01944446 127.09958649
105.54083332 21.01944446 180.00000000
105.54111110 21.01944446 -0.00000000
105.54138888 21.01944446 -0.00000000
105.54166666 21.01944446 -0.00000000
105.54194443 21.01944446 -0.00000000
105.54222221 21.01944446 -0.00000000
105.54249999 21.01944446 -0.00000000
105.54277777 21.01944446 -0.00000000
105.54305554 21.01944446 -0.00000000
105.54333332 21.01944446 321.53628540
105.54361110 21.01944446 330.38314819
105.54388888 21.01944446 345.03302002
105.54416666 21.01944446 339.27035522
105.54444443 21.01944446 6.69237947
105.54472221 21.01944446 48.89759064
105.54499999 21.01944446 41.66730499
105.54527777 21.01944446 -0.00000000
105.54555554 21.01944446 -0.00000000
105.54583332 21.01944446 -0.00000000
105.54611110 21.01944446 -0.00000000
105.54638888 21.01944446 -0.00000000
105.54666666 21.01944446 -0.00000000
105.54694443 21.01944446 -0.00000000
105.54722221 21.01944446 -0.00000000
105.54749999 21.01944446 -0.00000000
105.54777777 21.01944446 -0.00000000
105.54805554 21.01944446 -0.00000000
105.54833332 21.01944446 -0.00000000
105.54861110 21.01944446 -0.00000000
105.54888888 21.01944446 -0.00000000
105.54916666 21.01944446 270.00000000
105.54944443 21.01944446 297.98034668
105.54972221 21.01944446 314.21429443
105.54999999 21.01944446 250.68699646
105.55027777 21.01944446 217.48587036
105.55055554 21.01944446 82.90213776
105.55083332 21.01944446 126.01509857
105.55111110 21.01944446 159.85437012
105.55138888 21.01944446 171.18966675
105.55166666 21.01944446 66.14904022
105.55194443 21.01944446 85.47756958
105.55222221 21.01944446 44.02388382
105.55249999 21.01944446 12.92312241
105.55277777 21.01944446 358.35708618
105.55305554 21.01944446 311.49661255
105.55333332 21.01944446 91.41845703
105.55361110 21.01944446 123.88928223
105.55388888 21.01944446 128.15753174
105.55416666 21.01944446 14.38956738
105.55444443 21.01944446 325.65490723
105.55472221 21.01944446 342.01303101
105.55499999 21.01944446 347.32183838
105.55527777 21.01944446 339.11456299
105.55555554 21.01944446 25.80259895
105.55583332 21.01944446 69.01817322
105.55611110 21.01944446 31.93932533
105.55638888 21.01944446 32.02775574
105.55666666 21.01944446 35.82627106
105.55694443 21.01944446 272.97921753
105.55722221 21.01944446 261.85049438
105.55749999 21.01944446 278.90734863
105.55777777 21.01944446 92.46852875
105.55805554 21.01944446 109.35550690
105.55833332 21.01944446 151.72221375
105.55861110 21.01944446 245.77824402
105.55888888 21.01944446 234.77703857
105.55916666 21.01944446 223.08612061
105.55944443 21.01944446 172.44692993
105.55972221 21.01944446 138.67736816
105.55999999 21.01944446 132.31503296
105.56027777 21.01944446 147.00311279
105.56055554 21.01944446 125.24624634
105.56083332 21.01944446 77.17420197
105.56111110 21.01944446 194.82815552
105.56138888 21.01944446 280.20205688
105.56166666 21.01944446 278.09387207
105.56194443 21.01944446 296.08441162
105.56222221 21.01944446 103.39610291
105.56249999 21.01944446 274.70880127
105.56277777 21.01944446 280.27398682
105.56305554 21.01944446 251.54248047
105.56333332 21.01944446 221.90237427
105.56361110 21.01944446 283.55178833
105.56388888 21.01944446 205.80699158
105.56416666 21.01944446 119.76892853
105.56444443 21.01944446 85.11336517
105.56472221 21.01944446 72.93937683
105.56499999 21.01944446 355.27252197
105.56527777 21.01944446 321.12600708
105.56555554 21.01944446 325.68756104
105.56583332 21.01944446 330.06338501
105.56611110 21.01944446 78.17930603
105.56638888 21.01944446 90.40358734
105.56666666 21.01944446 89.72203064
105.56694443 21.01944446 177.21913147
105.56722221 21.01944446 253.62908936
105.56749999 21.01944446 232.08940125
105.56777777 21.01944446 284.49780273
105.56805554 21.01944446 21.64919281
105.56833332 21.01944446 21.23251724
105.56861110 21.01944446 39.74658203
105.51027777 21.01916668 11.53921223
105.51055554 21.01916668 6.35369062
105.51083332 21.01916668 312.10150146
105.51111110 21.01916668 277.83288574
105.51138888 21.01916668 211.83523560
105.51166666 21.01916668 249.90119934
105.51194443 21.01916668 61.14420700
105.51222221 21.01916668 74.35190582
105.51249999 21.01916668 64.02541351
105.51277777 21.01916668 51.63135910
105.51305554 21.01916668 324.84420776
105.51333332 21.01916668 319.61453247
105.51361110 21.01916668 347.27050781
105.51388888 21.01916668 79.27393341
105.51416666 21.01916668 56.79192734
105.51444443 21.01916668 57.56209564
105.51472221 21.01916668 64.04357910
105.51499999 21.01916668 58.13414383
105.51527777 21.01916668 291.75241089
105.51555554 21.01916668 4.57585382
105.51583332 21.01916668 57.18272781
105.51611110 21.01916668 22.43508720
105.51638888 21.01916668 5.03070879
105.51666666 21.01916668 349.31576538
105.51694443 21.01916668 326.27001953
105.51722221 21.01916668 303.14111328
105.51749999 21.01916668 332.23556519
105.51777777 21.01916668 15.26542854
105.51805554 21.01916668 354.30303955
105.51833332 21.01916668 6.10922432
105.51861110 21.01916668 28.28461647
105.51888888 21.01916668 266.03320312
105.51916666 21.01916668 244.35935974
105.51944443 21.01916668 347.75405884
105.51972221 21.01916668 340.48611450
105.51999999 21.01916668 282.40270996
105.52027777 21.01916668 195.42727661
105.52055554 21.01916668 168.44769287
105.52083332 21.01916668 241.01657104
105.52111110 21.01916668 336.16207886
105.52138888 21.01916668 195.44812012
105.52166666 21.01916668 195.36569214
105.52194443 21.01916668 85.86973572
105.52222221 21.01916668 43.76361084
105.52249999 21.01916668 9.67929554
105.52277777 21.01916668 306.49383545
105.52305554 21.01916668 170.50094604
105.52333332 21.01916668 178.65251160
105.52361110 21.01916668 193.95680237
105.52388888 21.01916668 189.92997742
105.52416666 21.01916668 126.70238495
105.52444443 21.01916668 41.41920090
105.52472221 21.01916668 297.21304321
105.52499999 21.01916668 196.13803101
105.52527777 21.01916668 174.30650330
105.52555554 21.01916668 139.48277283
105.52583332 21.01916668 143.56968689
105.52611110 21.01916668 214.11604309
105.52638888 21.01916668 224.88546753
105.52666666 21.01916668 212.03521729
105.52694443 21.01916668 264.73336792
105.52722221 21.01916668 303.33215332
105.52749999 21.01916668 317.38916016
105.52777777 21.01916668 314.77069092
105.52805554 21.01916668 315.22265625
105.52833332 21.01916668 94.74278259
105.52861110 21.01916668 107.99297333
105.52888888 21.01916668 113.88753510
105.52916666 21.01916668 127.35076141
105.52944443 21.01916668 180.00000000
105.52972221 21.01916668 -0.00000000
105.52999999 21.01916668 270.00000000
105.53027777 21.01916668 313.01156616
