105.56416666 21.00277779 8.80470848
105.56444443 21.00277779 8.80262566
105.56472221 21.00277779 7.61244488
105.56499999 21.00277779 8.89382935
105.56527777 21.00277779 11.26752663
105.56555554 21.00277779 12.74721622
105.56583332 21.00277779 11.60389519
105.56611110 21.00277779 8.51775265
105.56638888 21.00277779 7.90749264
105.56666666 21.00277779 7.77079868
105.56694443 21.00277779 9.78652096
105.56722221 21.00277779 10.25936985
105.56749999 21.00277779 14.56435013
105.56777777 21.00277779 16.47800255
105.56805554 21.00277779 15.68983364
105.56833332 21.00277779 14.94962120
105.56861110 21.00277779 14.72245598
105.56888888 21.00277779 13.49041176
105.56916666 21.00277779 12.32010460
105.56944443 21.00277779 13.16511536
105.56972221 21.00277779 14.07714939
105.56999999 21.00277779 12.98902512
105.57027777 21.00277779 11.80813122
105.57055554 21.00277779 12.36314583
105.57083332 21.00277779 13.39682388
105.57111110 21.00277779 13.42918873
105.57138888 21.00277779 13.58649731
105.57166666 21.00277779 12.85568523
105.57194443 21.00277779 10.87382030
105.57222221 21.00277779 7.03048468
105.57249999 21.00277779 6.01308966
105.57277777 21.00277779 6.68523979
105.50888888 21.00250001 32.31448364
105.50916666 21.00250001 32.75005722
105.50944443 21.00250001 32.78195572
105.50972221 21.00250001 33.75337982
105.50999999 21.00250001 32.09951401
105.51027777 21.00250001 29.30798912
105.51055554 21.00250001 27.70904732
105.51083332 21.00250001 25.20174026
105.51111110 21.00250001 24.57967567
105.51138888 21.00250001 24.78528404
105.51166666 21.00250001 25.70341873
105.51194443 21.00250001 25.94065094
105.51222221 21.00250001 27.42437363
105.51249999 21.00250001 29.57152557
105.51277777 21.00250001 30.79798698
105.51305554 21.00250001 31.78905106
105.51333332 21.00250001 31.43995476
105.51361110 21.00250001 30.33917236
105.51388888 21.00250001 29.90401840
105.51416666 21.00250001 29.99256134
105.51444443 21.00250001 30.26474190
105.51472221 21.00250001 29.29070091
105.51499999 21.00250001 30.09030533
105.51527777 21.00250001 30.22115517
105.51555554 21.00250001 29.89998627
105.51583332 21.00250001 29.32295990
105.51611110 21.00250001 28.15641212
105.51638888 21.00250001 27.16954613
105.51666666 21.00250001 26.16702843
105.51694443 21.00250001 25.64623451
105.51722221 21.00250001 22.61585617
105.51749999 21.00250001 20.29563141
105.51777777 21.00250001 19.54159164
105.51805554 21.00250001 18.00000000
105.51833332 21.00250001 18.00000000
105.51861110 21.00250001 18.00000000
105.51888888 21.00250001 19.93446922
105.51916666 21.00250001 21.31375313
105.51944443 21.00250001 21.95290756
105.51972221 21.00250001 23.46982002
105.51999999 21.00250001 24.48298264
105.52027777 21.00250001 24.70538139
105.52055554 21.00250001 26.01009178
105.52083332 21.00250001 25.38562393
105.52111110 21.00250001 23.31908607
105.52138888 21.00250001 24.70183372
105.52166666 21.00250001 27.33965302
105.52194443 21.00250001 27.06665993
105.52222221 21.00250001 24.20248795
105.52249999 21.00250001 20.61571312
105.52277777 21.00250001 19.93349457
105.52305554 21.00250001 20.75655937
105.52333332 21.00250001 23.98513794
105.52361110 21.00250001 23.44033051
105.52388888 21.00250001 22.15326309
105.52416666 21.00250001 21.27479172
105.52444443 21.00250001 17.95981407
105.52472221 21.00250001 16.86777496
105.52499999 21.00250001 16.51519966
105.52527777 21.00250001 17.35512161
105.52555554 21.00250001 18.07552528
105.52583332 21.00250001 17.07240868
105.52611110 21.00250001 17.88938141
105.52638888 21.00250001 18.59808350
105.52666666 21.00250001 17.73313522
105.52694443 21.00250001 16.47275925
105.52722221 21.00250001 17.43624687
105.52749999 21.00250001 18.47273827
105.52777777 21.00250001 17.50478554
105.52805554 21.00250001 18.57036781
105.52833332 21.00250001 19.75182152
105.52861110 21.00250001 17.08744812
105.52888888 21.00250001 17.00493813
105.52916666 21.00250001 21.72003174
105.52944443 21.00250001 21.62685966
105.52972221 21.00250001 18.20424843
105.52999999 21.00250001 18.92770195
105.53027777 21.00250001 18.25839233
105.53055554 21.00250001 16.91269302
105.53083332 21.00250001 17.38390160
105.53111110 21.00250001 18.70300674
105.53138888 21.00250001 19.60046005
105.53166666 21.00250001 21.93239594
105.53194443 21.00250001 21.79670715
105.53222221 21.00250001 18.12788582
105.53249999 21.00250001 16.09788322
105.53277777 21.00250001 14.38796329
105.53305554 21.00250001 14.80802822
105.53333332 21.00250001 16.51986313
105.53361110 21.00250001 18.22814941
105.53388888 21.00250001 19.77135468
105.53416666 21.00250001 19.62106514
105.53444443 21.00250001 18.72333527
105.53472221 21.00250001 17.05934906
105.53499999 21.00250001 12.99864388
105.53527777 21.00250001 10.47432899
105.53555554 21.00250001 11.15936852
105.53583332 21.00250001 14.87651348
105.53611110 21.00250001 17.21806717
105.53638888 21.00250001 16.15153122
105.53666666 21.00250001 15.16139984
105.53694443 21.00250001 14.69472504
105.53722221 21.00250001 15.28282356
105.53749999 21.00250001 16.30660629
105.53777777 21.00250001 15.00111103
105.53805554 21.00250001 15.18210888
105.53833332 21.00250001 13.38989925
105.53861110 21.00250001 12.61233902
105.53888888 21.00250001 13.76063347
105.53916666 21.00250001 15.54219818
105.53944443 21.00250001 15.07667255
105.53972221 21.00250001 15.02617741
105.53999999 21.00250001 14.81439018
105.54027777 21.00250001 15.06431866
105.54055554 21.00250001 15.38121986
105.54083332 21.00250001 15.32573986
105.54111110 21.00250001 14.89861202
105.54138888 21.00250001 15.44179440
105.54166666 21.00250001 15.76718807
105.54194443 21.00250001 15.93993855
105.54222221 21.00250001 17.56079865
105.54249999 21.00250001 18.52287865
105.54277777 21.00250001 17.58894730
105.54305554 21.00250001 17.65294647
105.54333332 21.00250001 17.66150665
105.54361110 21.00250001 17.42976379
105.54388888 21.00250001 17.49837685
105.54416666 21.00250001 17.41646385
105.54444443 21.00250001 17.75568771
105.54472221 21.00250001 16.61244392
105.54499999 21.00250001 15.87051868
105.54527777 21.00250001 16.29692650
105.54555554 21.00250001 18.46774101
105.54583332 21.00250001 19.86254692
105.54611110 21.00250001 19.74668884
105.54638888 21.00250001 19.40161705
105.54666666 21.00250001 15.46347332
105.54694443 21.00250001 10.04900932
105.54722221 21.00250001 7.82941771
105.54749999 21.00250001 7.38930464
105.54777777 21.00250001 7.46834993
105.54805554 21.00250001 8.82638836
105.54833332 21.00250001 8.41900730
105.54861110 21.00250001 9.22739887
105.54888888 21.00250001 15.16468525
105.54916666 21.00250001 16.33158684
105.54944443 21.00250001 13.55822182
105.54972221 21.00250001 13.46728420
105.54999999 21.00250001 13.27174950
105.55027777 21.00250001 10.82884884
105.55055554 21.00250001 8.50609303
105.55083332 21.00250001 8.53606892
105.55111110 21.00250001 10.18795776
105.55138888 21.00250001 11.23588085
105.55166666 21.00250001 11.94095135
105.55194443 21.00250001 9.50362778
105.55222221 21.00250001 7.88923120
105.55249999 21.00250001 7.11941338
105.55277777 21.00250001 7.08362055
105.55305554 21.00250001 6.96870041
105.55333332 21.00250001 7.03313446
105.55361110 21.00250001 7.66670561
105.55388888 21.00250001 9.30409241
105.55416666 21.00250001 10.66649437
105.55444443 21.00250001 8.67330170
105.55472221 21.00250001 7.94601822
105.55499999 21.00250001 7.93017626
105.55527777 21.00250001 7.53070688
105.55555554 21.00250001 6.95327091
105.55583332 21.00250001 6.09393692
105.55611110 21.00250001 6.11486387
105.55638888 21.00250001 7.33861685
105.55666666 21.00250001 6.88602877
105.55694443 21.00250001 5.00000000
105.55722221 21.00250001 6.51153517
105.55749999 21.00250001 8.31969452
105.55777777 21.00250001 8.70578575
105.55805554 21.00250001 8.31605148
105.55833332 21.00250001 8.15703678
105.55861110 21.00250001 7.33656311
105.55888888 21.00250001 6.42948437
105.55916666 21.00250001 6.62177610
105.55944443 21.00250001 7.24323130
105.55972221 21.00250001 10.71580029
105.55999999 21.00250001 13.17372036
105.56027777 21.00250001 9.89885998
105.56055554 21.00250001 10.59383583
105.56083332 21.00250001 14.46080875
105.56111110 21.00250001 14.68829823
105.56138888 21.00250001 15.61737251
105.56166666 21.00250001 13.12122822
105.56194443 21.00250001 8.39937305
105.56222221 21.00250001 6.57440472
105.56249999 21.00250001 6.18930197
105.56277777 21.00250001 6.07596302
105.56305554 21.00250001 6.45828390
105.56333332 21.00250001 7.70297098
105.56361110 21.00250001 8.81474876
105.56388888 21.00250001 8.76049519
105.56416666 21.00250001 8.91174793
105.56444443 21.00250001 9.71708012
105.56472221 21.00250001 9.61646557
105.56499999 21.00250001 7.84271812
105.56527777 21.00250001 10.55785084
105.56555554 21.00250001 13.31462479
105.56583332 21.00250001 13.56267262
105.56611110 21.00250001 9.48936558
105.56638888 21.00250001 8.66102982
105.56666666 21.00250001 9.15607166
105.56694443 21.00250001 12.03528500
105.56722221 21.00250001 12.92578697
105.56749999 21.00250001 14.08677483
105.56777777 21.00250001 16.06803513
105.56805554 21.00250001 14.62426662
105.56833332 21.00250001 14.67884731
105.56861110 21.00250001 14.17543888
105.56888888 21.00250001 13.07468319
105.56916666 21.00250001 10.95154762
105.56944443 21.00250001 12.17380428
105.56972221 21.00250001 12.87791824
105.56999999 21.00250001 13.29244995
105.57027777 21.00250001 12.81225872
105.57055554 21.00250001 12.42172050
105.57083332 21.00250001 12.67185211
105.57111110 21.00250001 14.19194412
105.57138888 21.00250001 13.32064056
105.57166666 21.00250001 12.28477192
105.57194443 21.00250001 11.83529758
105.57222221 21.00250001 9.20265198
105.57249999 21.00250001 6.20904350
105.57277777 21.00250001 6.23560381
105.50888888 21.00222223 32.64155579
105.50916666 21.00222223 32.90926743
105.50944443 21.00222223 33.63465881
105.50972221 21.00222223 33.46181870
105.50999999 21.00222223 31.63533783
105.51027777 21.00222223 29.19077682
105.51055554 21.00222223 26.30860519
105.51083332 21.00222223 24.83671951
105.51111110 21.00222223 25.74616814
105.51138888 21.00222223 27.31970787
105.51166666 21.00222223 27.35476112
105.51194443 21.00222223 27.84399033
105.51222221 21.00222223 28.93408585
105.51249999 21.00222223 30.31419182
105.51277777 21.00222223 31.70860481
105.51305554 21.00222223 32.03812027
105.51333332 21.00222223 30.85227776
105.51361110 21.00222223 29.89356422
105.51388888 21.00222223 28.85894012
105.51416666 21.00222223 27.88774109
105.51444443 21.00222223 28.46274757
105.51472221 21.00222223 27.11867905
105.51499999 21.00222223 28.13256454
105.51527777 21.00222223 28.44891167
105.51555554 21.00222223 25.59626007
105.51583332 21.00222223 24.79121399
105.51611110 21.00222223 25.62008286
105.51638888 21.00222223 27.00297165
105.51666666 21.00222223 25.48888397
105.51694443 21.00222223 24.46856880
105.51722221 21.00222223 21.26366234
105.51749999 21.00222223 17.87401581
105.51777777 21.00222223 17.88605690
105.51805554 21.00222223 18.00000000
105.51833332 21.00222223 18.00000000
105.51861110 21.00222223 18.00000000
105.51888888 21.00222223 22.68457603
105.51916666 21.00222223 24.58176613
105.51944443 21.00222223 26.04449654
105.51972221 21.00222223 25.59093666
105.51999999 21.00222223 24.98654366
105.52027777 21.00222223 25.79183388
105.52055554 21.00222223 27.52609825
105.52083332 21.00222223 28.43267632
105.52111110 21.00222223 25.25876427
105.52138888 21.00222223 23.87559700
105.52166666 21.00222223 25.62776375
105.52194443 21.00222223 25.85591698
105.52222221 21.00222223 23.98992729
105.52249999 21.00222223 20.71151924
105.52277777 21.00222223 19.68289948
105.52305554 21.00222223 19.47294426
105.52333332 21.00222223 21.50036430
105.52361110 21.00222223 23.24848938
105.52388888 21.00222223 21.74405289
105.52416666 21.00222223 20.83736038
105.52444443 21.00222223 19.19063377
105.52472221 21.00222223 18.29816628
105.52499999 21.00222223 17.44203377
105.52527777 21.00222223 18.54444504
105.52555554 21.00222223 20.10517693
105.52583332 21.00222223 19.13514328
105.52611110 21.00222223 18.97023964
105.52638888 21.00222223 19.28772926
105.52666666 21.00222223 19.08457947
105.52694443 21.00222223 17.46997643
105.52722221 21.00222223 18.57423401
105.52749999 21.00222223 19.04800797
105.52777777 21.00222223 17.49094963
105.52805554 21.00222223 18.15650368
105.52833332 21.00222223 18.19199371
105.52861110 21.00222223 15.69140244
105.52888888 21.00222223 14.98487473
105.52916666 21.00222223 17.28647232
105.52944443 21.00222223 14.56965351
105.52972221 21.00222223 13.82848358
105.52999999 21.00222223 15.08279037
105.53027777 21.00222223 15.77527905
105.53055554 21.00222223 14.97747803
105.53083332 21.00222223 15.66727543
105.53111110 21.00222223 17.45125580
105.53138888 21.00222223 17.98740578
105.53166666 21.00222223 19.61172104
105.53194443 21.00222223 20.08071518
105.53222221 21.00222223 18.60269737
105.53249999 21.00222223 16.14614296
105.53277777 21.00222223 13.57871056
105.53305554 21.00222223 12.90883923
105.53333332 21.00222223 13.51274776
105.53361110 21.00222223 15.21956444
105.53388888 21.00222223 18.00503540
105.53416666 21.00222223 19.19007111
105.53444443 21.00222223 18.64663696
105.53472221 21.00222223 16.90094185
105.53499999 21.00222223 12.52530575
105.53527777 21.00222223 10.61259651
105.53555554 21.00222223 10.84015846
105.53583332 21.00222223 13.45480633
105.53611110 21.00222223 14.97042847
105.53638888 21.00222223 14.95458126
105.53666666 21.00222223 14.78213692
105.53694443 21.00222223 15.33146477
105.53722221 21.00222223 16.64507484
105.53749999 21.00222223 16.69808578
105.53777777 21.00222223 16.03428268
105.53805554 21.00222223 14.74279404
105.53833332 21.00222223 12.92143440
105.53861110 21.00222223 13.09721279
105.53888888 21.00222223 13.44432449
105.53916666 21.00222223 14.49750042
105.53944443 21.00222223 15.09401989
105.53972221 21.00222223 15.32264996
105.53999999 21.00222223 15.06525040
105.54027777 21.00222223 15.06323624
105.54055554 21.00222223 14.67719841
105.54083332 21.00222223 14.39259815
105.54111110 21.00222223 14.39799881
105.54138888 21.00222223 15.23232079
105.54166666 21.00222223 15.83898830
105.54194443 21.00222223 15.50430298
105.54222221 21.00222223 16.67530632
105.54249999 21.00222223 17.87619591
105.54277777 21.00222223 17.69842339
105.54305554 21.00222223 17.08433914
105.54333332 21.00222223 17.65917015
105.54361110 21.00222223 17.74102402
105.54388888 21.00222223 17.90081787
105.54416666 21.00222223 17.48258209
105.54444443 21.00222223 16.99454498
105.54472221 21.00222223 16.86800385
105.54499999 21.00222223 17.39286613
105.54527777 21.00222223 18.71308708
105.54555554 21.00222223 19.24696922
105.54583332 21.00222223 19.35500908
105.54611110 21.00222223 18.83006668
105.54638888 21.00222223 15.78836250
105.54666666 21.00222223 10.36683941
105.54694443 21.00222223 8.59555435
105.54722221 21.00222223 12.19601631
105.54749999 21.00222223 14.70313454
105.54777777 21.00222223 12.18317699
105.54805554 21.00222223 11.13103867
105.54833332 21.00222223 9.41788769
105.54861110 21.00222223 9.59127808
105.54888888 21.00222223 12.36177349
105.54916666 21.00222223 12.58063221
105.54944443 21.00222223 11.79063797
105.54972221 21.00222223 14.79692173
105.54999999 21.00222223 16.08507347
105.55027777 21.00222223 12.97129822
105.55055554 21.00222223 9.04961777
105.55083332 21.00222223 9.03843212
105.55111110 21.00222223 10.28822899
105.55138888 21.00222223 10.91978359
105.55166666 21.00222223 10.79225063
105.55194443 21.00222223 8.10521507
105.55222221 21.00222223 6.79060459
105.55249999 21.00222223 6.46229935
105.55277777 21.00222223 7.19279814
105.55305554 21.00222223 7.52583933
105.55333332 21.00222223 7.72283506
105.55361110 21.00222223 7.77812052
105.55388888 21.00222223 8.23350239
105.55416666 21.00222223 8.68514729
105.55444443 21.00222223 7.82484674
105.55472221 21.00222223 7.51897383
105.55499999 21.00222223 7.79634523
105.55527777 21.00222223 7.92352057
105.55555554 21.00222223 8.25760269
105.55583332 21.00222223 8.39308643
105.55611110 21.00222223 8.02381992
105.55638888 21.00222223 7.34510040
105.55666666 21.00222223 5.00000000
105.55694443 21.00222223 5.00000000
105.55722221 21.00222223 5.00000000
105.55749999 21.00222223 8.36169624
105.55777777 21.00222223 9.06825066
105.55805554 21.00222223 8.44457436
105.55833332 21.00222223 7.98439550
105.55861110 21.00222223 6.79163647
105.55888888 21.00222223 6.45314455
105.55916666 21.00222223 7.10784721
105.55944443 21.00222223 9.18534946
105.55972221 21.00222223 12.52219868
105.55999999 21.00222223 12.30834961
105.56027777 21.00222223 10.75835896
105.56055554 21.00222223 12.38256931
105.56083332 21.00222223 14.45534134
105.56111110 21.00222223 14.90235138
105.56138888 21.00222223 15.67786503
105.56166666 21.00222223 12.78517246
105.56194443 21.00222223 10.52448368
105.56222221 21.00222223 9.32989979
105.56249999 21.00222223 8.43977261
105.56277777 21.00222223 6.62398863
105.56305554 21.00222223 7.11159706
105.56333332 21.00222223 8.58115864
105.56361110 21.00222223 8.78386497
105.56388888 21.00222223 8.85369492
105.56416666 21.00222223 9.47697163
105.56444443 21.00222223 10.64586735
105.56472221 21.00222223 9.92848778
105.56499999 21.00222223 10.92105865
105.56527777 21.00222223 11.11198330
105.56555554 21.00222223 11.85989285
105.56583332 21.00222223 11.69417572
105.56611110 21.00222223 9.72690487
105.56638888 21.00222223 9.79197788
105.56666666 21.00222223 12.94890308
105.56694443 21.00222223 15.19583321
105.56722221 21.00222223 15.35549927
105.56749999 21.00222223 14.14519787
105.56777777 21.00222223 13.78107166
105.56805554 21.00222223 14.03920937
105.56833332 21.00222223 13.59380627
105.56861110 21.00222223 12.97199917
105.56888888 21.00222223 11.43270493
105.56916666 21.00222223 10.35641193
105.56944443 21.00222223 10.86431122
105.56972221 21.00222223 11.05982780
105.56999999 21.00222223 12.07826424
105.57027777 21.00222223 13.70614624
105.57055554 21.00222223 13.35230446
105.57083332 21.00222223 12.87436199
105.57111110 21.00222223 13.38105011
105.57138888 21.00222223 12.88087177
105.57166666 21.00222223 14.18560314
105.57194443 21.00222223 13.39862919
105.57222221 21.00222223 8.89693356
105.57249999 21.00222223 6.34397793
105.57277777 21.00222223 6.35999966
105.50888888 21.00194446 32.38583374
105.50916666 21.00194446 32.62502289
105.50944443 21.00194446 32.68188858
105.50972221 21.00194446 32.29905319
105.50999999 21.00194446 32.58489609
105.51027777 21.00194446 30.05336952
105.51055554 21.00194446 25.81000519
105.51083332 21.00194446 25.09883499
105.51111110 21.00194446 27.09212494
105.51138888 21.00194446 29.79952049
105.51166666 21.00194446 30.10434341
105.51194443 21.00194446 30.32936668
105.51222221 21.00194446 30.77008057
105.51249999 21.00194446 32.11622238
105.51277777 21.00194446 32.36168289
105.51305554 21.00194446 31.18721581
105.51333332 21.00194446 30.13548470
105.51361110 21.00194446 30.35393333
105.51388888 21.00194446 32.28617096
105.51416666 21.00194446 30.02782059
105.51444443 21.00194446 26.56655121
105.51472221 21.00194446 23.54878044
105.51499999 21.00194446 23.51241302
105.51527777 21.00194446 23.16697693
105.51555554 21.00194446 21.44877815
105.51583332 21.00194446 20.05665207
105.51611110 21.00194446 20.23884201
105.51638888 21.00194446 23.37188339
105.51666666 21.00194446 25.48820114
105.51694443 21.00194446 24.24418259
105.51722221 21.00194446 19.50823975
105.51749999 21.00194446 17.07304001
105.51777777 21.00194446 17.37416077
105.51805554 21.00194446 18.08142853
105.51833332 21.00194446 19.24631691
105.51861110 21.00194446 20.81733704
105.51888888 21.00194446 22.56965256
105.51916666 21.00194446 24.59584045
105.51944443 21.00194446 26.35126305
105.51972221 21.00194446 25.34651756
105.51999999 21.00194446 25.44741249
105.52027777 21.00194446 26.32206917
105.52055554 21.00194446 27.52820206
105.52083332 21.00194446 28.53426743
105.52111110 21.00194446 27.79320526
105.52138888 21.00194446 25.20917130
105.52166666 21.00194446 26.91138268
105.52194443 21.00194446 25.47306633
105.52222221 21.00194446 23.30943680
105.52249999 21.00194446 20.51313400
105.52277777 21.00194446 20.27262115
105.52305554 21.00194446 19.21340942
105.52333332 21.00194446 18.54837227
105.52361110 21.00194446 19.71614075
105.52388888 21.00194446 20.38401985
105.52416666 21.00194446 20.43668747
105.52444443 21.00194446 21.01711464
105.52472221 21.00194446 20.04888535
105.52499999 21.00194446 19.27507401
105.52527777 21.00194446 18.01567650
105.52555554 21.00194446 18.17572021
105.52583332 21.00194446 17.89221954
105.52611110 21.00194446 17.30171013
105.52638888 21.00194446 18.04118156
105.52666666 21.00194446 18.15982056
105.52694443 21.00194446 17.58482552
105.52722221 21.00194446 19.31750679
105.52749999 21.00194446 18.74222565
105.52777777 21.00194446 15.75064468
105.52805554 21.00194446 14.40359688
105.52833332 21.00194446 14.70419598
105.52861110 21.00194446 13.48883915
105.52888888 21.00194446 13.98511600
105.52916666 21.00194446 13.92831039
105.52944443 21.00194446 12.84455776
105.52972221 21.00194446 12.35263157
105.52999999 21.00194446 12.83698750
105.53027777 21.00194446 12.68971920
105.53055554 21.00194446 12.64943600
105.53083332 21.00194446 12.48550320
105.53111110 21.00194446 13.47497368
105.53138888 21.00194446 14.31844139
105.53166666 21.00194446 15.28074932
105.53194443 21.00194446 17.12720490
105.53222221 21.00194446 16.70244026
105.53249999 21.00194446 16.02215004
105.53277777 21.00194446 13.56104946
105.53305554 21.00194446 12.01687908
105.53333332 21.00194446 12.02886868
105.53361110 21.00194446 13.10280228
105.53388888 21.00194446 15.74443817
105.53416666 21.00194446 17.92902946
105.53444443 21.00194446 17.66042137
105.53472221 21.00194446 15.98571873
105.53499999 21.00194446 12.67378235
105.53527777 21.00194446 10.52717495
105.53555554 21.00194446 10.55641079
105.53583332 21.00194446 12.76755047
105.53611110 21.00194446 14.82957458
105.53638888 21.00194446 14.93848228
105.53666666 21.00194446 14.64902401
105.53694443 21.00194446 15.15271568
105.53722221 21.00194446 16.55148697
105.53749999 21.00194446 18.03172112
105.53777777 21.00194446 19.17341232
105.53805554 21.00194446 19.40880013
105.53833332 21.00194446 18.79095840
105.53861110 21.00194446 17.24475098
105.53888888 21.00194446 15.69178677
105.53916666 21.00194446 15.13653946
105.53944443 21.00194446 15.28663635
105.53972221 21.00194446 14.88409424
105.53999999 21.00194446 15.08569336
105.54027777 21.00194446 14.57072067
105.54055554 21.00194446 14.48400974
105.54083332 21.00194446 14.49940968
105.54111110 21.00194446 14.49640179
105.54138888 21.00194446 15.04815578
105.54166666 21.00194446 15.41939926
105.54194443 21.00194446 15.82915592
105.54222221 21.00194446 16.19436455
105.54249999 21.00194446 16.95432281
105.54277777 21.00194446 17.67720604
105.54305554 21.00194446 16.45294189
105.54333332 21.00194446 17.11826134
105.54361110 21.00194446 17.80369186
105.54388888 21.00194446 17.77869987
105.54416666 21.00194446 17.94504166
105.54444443 21.00194446 18.44985199
105.54472221 21.00194446 18.75808907
105.54499999 21.00194446 19.18984795
105.54527777 21.00194446 18.88068581
105.54555554 21.00194446 18.69296646
105.54583332 21.00194446 17.61493111
105.54611110 21.00194446 14.40589809
105.54638888 21.00194446 10.30740356
105.54666666 21.00194446 8.75882626
105.54694443 21.00194446 12.92360783
105.54722221 21.00194446 16.51119995
105.54749999 21.00194446 16.18146324
105.54777777 21.00194446 13.56288624
105.54805554 21.00194446 9.90514374
105.54833332 21.00194446 8.85124016
105.54861110 21.00194446 13.46577454
105.54888888 21.00194446 14.77009106
105.54916666 21.00194446 12.07245445
105.54944443 21.00194446 11.61619568
105.54972221 21.00194446 13.63397121
105.54999999 21.00194446 16.81541061
105.55027777 21.00194446 16.25978088
105.55055554 21.00194446 12.79845333
105.55083332 21.00194446 13.27921677
105.55111110 21.00194446 10.33869839
105.55138888 21.00194446 9.34951401
105.55166666 21.00194446 8.62901211
105.55194443 21.00194446 7.19126558
105.55222221 21.00194446 6.34664917
105.55249999 21.00194446 7.04924917
105.55277777 21.00194446 7.69760752
105.55305554 21.00194446 8.49591923
105.55333332 21.00194446 8.57050133
105.55361110 21.00194446 8.69603634
105.55388888 21.00194446 8.50873947
105.55416666 21.00194446 7.29854298
105.55444443 21.00194446 7.16488838
105.55472221 21.00194446 7.18546629
105.55499999 21.00194446 7.72836828
105.55527777 21.00194446 8.61150742
105.55555554 21.00194446 8.32165432
105.55583332 21.00194446 8.50968838
105.55611110 21.00194446 7.92672920
105.55638888 21.00194446 7.63555908
105.55666666 21.00194446 5.00000000
105.55694443 21.00194446 5.00000000
105.55722221 21.00194446 5.00000000
105.55749999 21.00194446 7.23382998
105.55777777 21.00194446 8.75617123
105.55805554 21.00194446 8.31825924
105.55833332 21.00194446 7.30792665
105.55861110 21.00194446 6.59534359
105.55888888 21.00194446 7.65669918
105.55916666 21.00194446 9.78168488
105.55944443 21.00194446 12.67535591
105.55972221 21.00194446 13.66442490
105.55999999 21.00194446 12.72018433
105.56027777 21.00194446 12.17836475
105.56055554 21.00194446 13.93101788
105.56083332 21.00194446 15.04007721
105.56111110 21.00194446 14.54213238
105.56138888 21.00194446 12.72310066
105.56166666 21.00194446 12.97597790
105.56194443 21.00194446 13.57046604
105.56222221 21.00194446 14.48783875
105.56249999 21.00194446 12.97018242
105.56277777 21.00194446 9.72686386
105.56305554 21.00194446 9.66481113
105.56333332 21.00194446 10.10659122
105.56361110 21.00194446 10.18292236
105.56388888 21.00194446 11.09404564
105.56416666 21.00194446 11.24258518
105.56444443 21.00194446 11.69052696
105.56472221 21.00194446 10.40517139
105.56499999 21.00194446 9.36503220
105.56527777 21.00194446 7.70310640
105.56555554 21.00194446 9.78733826
105.56583332 21.00194446 11.28675270
105.56611110 21.00194446 9.80733967
105.56638888 21.00194446 11.32149506
105.56666666 21.00194446 13.28430653
105.56694443 21.00194446 14.44304657
105.56722221 21.00194446 15.43292904
105.56749999 21.00194446 15.62636471
105.56777777 21.00194446 14.69284630
105.56805554 21.00194446 13.94337559
105.56833332 21.00194446 11.18034363
105.56861110 21.00194446 13.45925999
105.56888888 21.00194446 10.93702316
105.56916666 21.00194446 7.68079710
105.56944443 21.00194446 7.70830822
105.56972221 21.00194446 8.20380116
105.56999999 21.00194446 10.37885284
105.57027777 21.00194446 12.86653042
105.57055554 21.00194446 13.57860565
105.57083332 21.00194446 13.11279106
105.57111110 21.00194446 12.80680561
105.57138888 21.00194446 13.69040966
105.57166666 21.00194446 14.06094456
105.57194443 21.00194446 13.50768948
105.57222221 21.00194446 9.26920891
105.57249999 21.00194446 6.45122242
105.57277777 21.00194446 6.38518429
105.50916666 21.00166668 32.58643341
105.50944443 21.00166668 32.17570114
105.50972221 21.00166668 32.57951355
105.50999999 21.00166668 32.13788986
105.51027777 21.00166668 28.73351669
105.51055554 21.00166668 25.72606277
105.51083332 21.00166668 25.68493462
105.51111110 21.00166668 27.98597908
105.51138888 21.00166668 30.18072128
105.51166666 21.00166668 31.00321388
105.51194443 21.00166668 32.13364792
105.51222221 21.00166668 32.45077896
105.51249999 21.00166668 32.38605881
105.51277777 21.00166668 31.74800873
105.51305554 21.00166668 31.13307571
105.51333332 21.00166668 30.50672150
105.51361110 21.00166668 33.08077621
105.51388888 21.00166668 33.06739044
105.51416666 21.00166668 30.99527359
105.51444443 21.00166668 27.18793488
105.51472221 21.00166668 22.41020393
105.51499999 21.00166668 22.04476166
105.51527777 21.00166668 23.57930374
105.51555554 21.00166668 21.77424622
105.51583332 21.00166668 19.81621170
105.51611110 21.00166668 18.89241600
105.51638888 21.00166668 19.20572472
105.51666666 21.00166668 20.17031097
105.51694443 21.00166668 19.66656303
105.51722221 21.00166668 17.86511803
105.51749999 21.00166668 17.46236801
105.51777777 21.00166668 17.27842903
105.51805554 21.00166668 18.92724800
105.51833332 21.00166668 20.95688057
105.51861110 21.00166668 21.37153053
105.51888888 21.00166668 22.31719780
105.51916666 21.00166668 23.25656891
105.51944443 21.00166668 24.35569954
105.51972221 21.00166668 25.08482361
105.51999999 21.00166668 25.94068909
105.52027777 21.00166668 26.37980652
105.52055554 21.00166668 26.94962692
105.52083332 21.00166668 28.53804779
105.52111110 21.00166668 27.66656303
105.52138888 21.00166668 25.69896126
105.52166666 21.00166668 26.19718552
105.52194443 21.00166668 26.96792221
105.52222221 21.00166668 25.19133759
105.52249999 21.00166668 23.01250267
105.52277777 21.00166668 22.18362045
105.52305554 21.00166668 21.27161407
105.52333332 21.00166668 20.27548027
105.52361110 21.00166668 21.43251038
105.52388888 21.00166668 21.38920593
105.52416666 21.00166668 22.18699455
105.52444443 21.00166668 22.11967468
105.52472221 21.00166668 20.87624550
105.52499999 21.00166668 18.54335022
105.52527777 21.00166668 16.07290649
105.52555554 21.00166668 15.09707165
105.52583332 21.00166668 15.21485424
105.52611110 21.00166668 15.21197701
105.52638888 21.00166668 14.81475353
105.52666666 21.00166668 14.64364624
105.52694443 21.00166668 15.09558678
105.52722221 21.00166668 16.25389862
105.52749999 21.00166668 16.48869896
105.52777777 21.00166668 14.54794884
105.52805554 21.00166668 13.47676754
105.52833332 21.00166668 13.50666618
105.52861110 21.00166668 13.95292568
105.52888888 21.00166668 13.84900665
105.52916666 21.00166668 13.02415371
105.52944443 21.00166668 12.56956863
105.52972221 21.00166668 12.17386532
105.52999999 21.00166668 12.41109943
105.53027777 21.00166668 12.14794636
105.53055554 21.00166668 12.20905018
105.53083332 21.00166668 12.76195621
105.53111110 21.00166668 13.36337662
105.53138888 21.00166668 12.55610847
105.53166666 21.00166668 12.16484547
105.53194443 21.00166668 12.70625210
105.53222221 21.00166668 13.91487312
105.53249999 21.00166668 15.50003719
105.53277777 21.00166668 14.35367203
105.53305554 21.00166668 12.12557220
105.53333332 21.00166668 12.07711506
105.53361110 21.00166668 12.65558529
105.53388888 21.00166668 14.00005531
105.53416666 21.00166668 16.58840179
105.53444443 21.00166668 17.02889061
105.53472221 21.00166668 15.10871792
105.53499999 21.00166668 11.56812668
105.53527777 21.00166668 10.47324657
105.53555554 21.00166668 10.87606812
105.53583332 21.00166668 11.52252197
105.53611110 21.00166668 14.01572418
105.53638888 21.00166668 14.99846363
105.53666666 21.00166668 14.99984169
105.53694443 21.00166668 15.08644009
105.53722221 21.00166668 14.58526134
105.53749999 21.00166668 15.21796799
105.53777777 21.00166668 17.32432556
105.53805554 21.00166668 18.63234138
105.53833332 21.00166668 16.53144455
105.53861110 21.00166668 15.33537197
105.53888888 21.00166668 14.98237324
105.53916666 21.00166668 14.79485798
105.53944443 21.00166668 14.64137650
105.53972221 21.00166668 14.83922291
105.53999999 21.00166668 15.19964504
105.54027777 21.00166668 15.08710575
105.54055554 21.00166668 14.00846100
105.54083332 21.00166668 14.00298691
105.54111110 21.00166668 14.50999546
105.54138888 21.00166668 15.23037148
105.54166666 21.00166668 15.35061741
105.54194443 21.00166668 15.90822029
105.54222221 21.00166668 16.10876846
105.54249999 21.00166668 16.30293846
105.54277777 21.00166668 16.79390717
105.54305554 21.00166668 16.60832405
105.54333332 21.00166668 17.11846924
105.54361110 21.00166668 17.40651131
105.54388888 21.00166668 16.26087570
105.54416666 21.00166668 16.00960541
105.54444443 21.00166668 16.70988846
105.54472221 21.00166668 18.20047569
105.54499999 21.00166668 18.43635559
105.54527777 21.00166668 18.92014694
105.54555554 21.00166668 17.17475319
105.54583332 21.00166668 14.47587299
105.54611110 21.00166668 11.72253132
105.54638888 21.00166668 8.68148994
105.54666666 21.00166668 9.51880074
105.54694443 21.00166668 14.13102818
105.54722221 21.00166668 13.71824265
105.54749999 21.00166668 11.70469284
105.54777777 21.00166668 11.19245338
105.54805554 21.00166668 11.15016556
105.54833332 21.00166668 12.27431297
105.54861110 21.00166668 16.36056328
105.54888888 21.00166668 17.19108963
105.54916666 21.00166668 14.29868031
105.54944443 21.00166668 13.76809978
105.54972221 21.00166668 13.52428341
105.54999999 21.00166668 14.75235748
105.55027777 21.00166668 15.95885563
105.55055554 21.00166668 15.72895336
105.55083332 21.00166668 13.52932358
105.55111110 21.00166668 9.21050930
105.55138888 21.00166668 9.56109524
105.55166666 21.00166668 8.63170624
105.55194443 21.00166668 7.32305193
105.55222221 21.00166668 7.35824680
105.55249999 21.00166668 6.82660723
105.55277777 21.00166668 7.99735069
105.55305554 21.00166668 8.65708065
105.55333332 21.00166668 8.84300041
105.55361110 21.00166668 9.12506676
105.55388888 21.00166668 8.70394039
105.55416666 21.00166668 7.54351234
105.55444443 21.00166668 7.08837509
105.55472221 21.00166668 7.14663696
105.55499999 21.00166668 7.96570826
105.55527777 21.00166668 8.53132248
105.55555554 21.00166668 8.32390690
105.55583332 21.00166668 8.28316879
105.55611110 21.00166668 7.33767605
105.55638888 21.00166668 7.02753019
105.55666666 21.00166668 5.00000000
105.55694443 21.00166668 5.00000000
105.55722221 21.00166668 5.00000000
105.55749999 21.00166668 5.00000000
105.55777777 21.00166668 8.77075481
105.55805554 21.00166668 7.76152563
105.55833332 21.00166668 6.70531607
105.55861110 21.00166668 7.10440397
105.55888888 21.00166668 9.90387440
105.55916666 21.00166668 11.64342022
105.55944443 21.00166668 13.42926121
105.55972221 21.00166668 13.89895916
105.55999999 21.00166668 12.33256435
105.56027777 21.00166668 11.18929482
105.56055554 21.00166668 12.35637093
105.56083332 21.00166668 15.43101311
105.56111110 21.00166668 15.89528656
105.56138888 21.00166668 14.25563526
105.56166666 21.00166668 13.32036877
105.56194443 21.00166668 12.08883286
105.56222221 21.00166668 11.68310642
105.56249999 21.00166668 11.03663921
105.56277777 21.00166668 9.96430016
105.56305554 21.00166668 11.30588913
105.56333332 21.00166668 12.06044197
105.56361110 21.00166668 11.59555054
105.56388888 21.00166668 12.14896488
105.56416666 21.00166668 13.26893425
105.56444443 21.00166668 13.06791210
105.56472221 21.00166668 13.53828239
105.56499999 21.00166668 12.37559795
105.56527777 21.00166668 7.76573181
105.56555554 21.00166668 8.88517380
105.56583332 21.00166668 10.71716785
105.56611110 21.00166668 11.38233376
105.56638888 21.00166668 11.30312538
105.56666666 21.00166668 13.07604694
105.56694443 21.00166668 13.19595432
105.56722221 21.00166668 14.18020821
105.56749999 21.00166668 15.31782818
105.56777777 21.00166668 14.41993427
105.56805554 21.00166668 13.12101555
105.56833332 21.00166668 8.92090321
105.56861110 21.00166668 8.47518063
105.56888888 21.00166668 7.04170465
105.56916666 21.00166668 5.50000000
105.56944443 21.00166668 5.50000000
105.56972221 21.00166668 5.50000000
105.56999999 21.00166668 7.45348406
105.57027777 21.00166668 9.51929283
105.57055554 21.00166668 9.70565987
105.57083332 21.00166668 10.47832584
105.57111110 21.00166668 11.12436962
105.57138888 21.00166668 12.15125751
105.57166666 21.00166668 12.40182972
105.57194443 21.00166668 12.43612766
105.57222221 21.00166668 9.54988384
105.57249999 21.00166668 6.34207821
105.57277777 21.00166668 6.43165493
105.50916666 21.00138890 32.68401337
105.50944443 21.00138890 32.39923859
105.50972221 21.00138890 32.64746857
105.50999999 21.00138890 32.36703873
105.51027777 21.00138890 27.39078903
105.51055554 21.00138890 25.70546341
105.51083332 21.00138890 25.67331314
105.51111110 21.00138890 28.00295258
105.51138888 21.00138890 29.23775291
105.51166666 21.00138890 30.40080643
105.51194443 21.00138890 32.01481628
105.51222221 21.00138890 32.99560928
105.51249999 21.00138890 33.28667831
105.51277777 21.00138890 32.36645126
105.51305554 21.00138890 31.73040009
105.51333332 21.00138890 30.90438652
105.51361110 21.00138890 31.51504135
105.51388888 21.00138890 30.64044952
105.51416666 21.00138890 30.21296883
105.51444443 21.00138890 25.68121910
105.51472221 21.00138890 23.97819138
105.51499999 21.00138890 26.33051872
105.51527777 21.00138890 26.03343201
105.51555554 21.00138890 21.16170311
105.51583332 21.00138890 18.91984558
105.51611110 21.00138890 18.79359055
105.51638888 21.00138890 18.44953728
105.51666666 21.00138890 18.08748627
105.51694443 21.00138890 17.87715721
105.51722221 21.00138890 17.43050003
105.51749999 21.00138890 17.23132896
105.51777777 21.00138890 17.44208527
105.51805554 21.00138890 18.43707085
105.51833332 21.00138890 20.23493958
105.51861110 21.00138890 21.42571068
105.51888888 21.00138890 22.60781288
105.51916666 21.00138890 22.73643875
105.51944443 21.00138890 23.79686737
105.51972221 21.00138890 25.21312332
105.51999999 21.00138890 25.08416176
105.52027777 21.00138890 25.69335938
105.52055554 21.00138890 27.53975105
105.52083332 21.00138890 28.53728676
105.52111110 21.00138890 28.78541374
105.52138888 21.00138890 26.84965515
105.52166666 21.00138890 26.09069252
105.52194443 21.00138890 27.49748230
105.52222221 21.00138890 26.22216606
105.52249999 21.00138890 24.62533379
105.52277777 21.00138890 22.09174156
105.52305554 21.00138890 19.76738739
105.52333332 21.00138890 19.50935364
105.52361110 21.00138890 20.80487442
105.52388888 21.00138890 21.61744690
105.52416666 21.00138890 22.01871681
105.52444443 21.00138890 22.01008224
105.52472221 21.00138890 16.85505676
105.52499999 21.00138890 15.01404190
105.52527777 21.00138890 14.56809521
105.52555554 21.00138890 14.34010220
105.52583332 21.00138890 14.18503857
105.52611110 21.00138890 14.25277138
105.52638888 21.00138890 14.47787094
105.52666666 21.00138890 14.33880997
105.52694443 21.00138890 13.98727512
105.52722221 21.00138890 13.94087124
105.52749999 21.00138890 13.66838741
105.52777777 21.00138890 13.40732861
105.52805554 21.00138890 13.15545654
105.52833332 21.00138890 13.76836491
105.52861110 21.00138890 13.81252670
105.52888888 21.00138890 13.61858559
105.52916666 21.00138890 12.79446411
105.52944443 21.00138890 12.51141739
105.52972221 21.00138890 13.30058479
105.52999999 21.00138890 13.32200432
105.53027777 21.00138890 12.46132755
105.53055554 21.00138890 11.90065479
105.53083332 21.00138890 13.59701347
105.53111110 21.00138890 15.02109146
105.53138888 21.00138890 14.28531075
105.53166666 21.00138890 12.93336391
105.53194443 21.00138890 11.83579063
105.53222221 21.00138890 13.72678089
105.53249999 21.00138890 15.71924305
105.53277777 21.00138890 15.61495876
105.53305554 21.00138890 14.62860870
105.53333332 21.00138890 13.17874241
105.53361110 21.00138890 12.07471657
105.53388888 21.00138890 13.16366482
105.53416666 21.00138890 15.71909237
105.53444443 21.00138890 16.13673401
105.53472221 21.00138890 13.73703861
105.53499999 21.00138890 11.27182198
105.53527777 21.00138890 10.92102337
105.53555554 21.00138890 10.85197830
105.53583332 21.00138890 10.93531799
105.53611110 21.00138890 11.62872505
105.53638888 21.00138890 14.51489830
105.53666666 21.00138890 15.24324322
105.53694443 21.00138890 14.99468040
105.53722221 21.00138890 15.25670910
105.53749999 21.00138890 15.23988724
105.53777777 21.00138890 15.37756538
105.53805554 21.00138890 15.66869640
105.53833332 21.00138890 14.96648979
105.53861110 21.00138890 14.96953964
105.53888888 21.00138890 14.66501331
105.53916666 21.00138890 14.30482101
105.53944443 21.00138890 14.64316368
105.53972221 21.00138890 14.28707409
105.53999999 21.00138890 14.25499249
105.54027777 21.00138890 14.66095448
105.54055554 21.00138890 14.80098343
105.54083332 21.00138890 14.50837231
105.54111110 21.00138890 14.73070908
105.54138888 21.00138890 14.64323044
105.54166666 21.00138890 14.63432026
105.54194443 21.00138890 15.73851299
105.54222221 21.00138890 16.31542015
105.54249999 21.00138890 17.01725197
105.54277777 21.00138890 17.47374153
105.54305554 21.00138890 17.38425446
105.54333332 21.00138890 19.30264282
105.54361110 21.00138890 17.68308449
105.54388888 21.00138890 15.65911579
105.54416666 21.00138890 12.76423454
105.54444443 21.00138890 12.33088493
105.54472221 21.00138890 14.81712723
105.54499999 21.00138890 14.59825516
105.54527777 21.00138890 12.72459316
105.54555554 21.00138890 11.34200382
105.54583332 21.00138890 10.08061695
105.54611110 21.00138890 9.26248169
105.54638888 21.00138890 9.37896538
105.54666666 21.00138890 10.29957104
105.54694443 21.00138890 10.82340336
105.54722221 21.00138890 10.62718487
105.54749999 21.00138890 10.15935326
105.54777777 21.00138890 9.95133591
105.54805554 21.00138890 11.63012409
105.54833332 21.00138890 15.39496994
105.54861110 21.00138890 15.48685932
105.54888888 21.00138890 14.65137672
105.54916666 21.00138890 13.02340794
105.54944443 21.00138890 12.32186604
105.54972221 21.00138890 12.35179710
105.54999999 21.00138890 13.31007004
105.55027777 21.00138890 15.57207203
105.55055554 21.00138890 13.59282970
105.55083332 21.00138890 11.24502563
105.55111110 21.00138890 9.83757877
105.55138888 21.00138890 7.98709965
105.55166666 21.00138890 6.67239094
105.55194443 21.00138890 6.46881962
105.55222221 21.00138890 6.36606646
105.55249999 21.00138890 7.75630188
105.55277777 21.00138890 8.72788334
105.55305554 21.00138890 8.73706245
105.55333332 21.00138890 8.94125652
105.55361110 21.00138890 8.97768974
105.55388888 21.00138890 9.03107929
105.55416666 21.00138890 8.12387371
105.55444443 21.00138890 7.59106731
105.55472221 21.00138890 7.47974396
105.55499999 21.00138890 8.06648445
105.55527777 21.00138890 8.61396027
105.55555554 21.00138890 7.84615660
105.55583332 21.00138890 6.65687752
105.55611110 21.00138890 5.00000000
105.55638888 21.00138890 5.00000000
105.55666666 21.00138890 5.00000000
105.55694443 21.00138890 5.00000000
105.55722221 21.00138890 5.00000000
105.55749999 21.00138890 6.55698299
105.55777777 21.00138890 9.29798698
105.55805554 21.00138890 7.89696789
105.55833332 21.00138890 7.54374886
105.55861110 21.00138890 10.35981560
105.55888888 21.00138890 12.11334705
105.55916666 21.00138890 13.49114418
105.55944443 21.00138890 17.36228943
105.55972221 21.00138890 18.10688210
105.55999999 21.00138890 13.45079422
105.56027777 21.00138890 10.77393055
105.56055554 21.00138890 11.30119801
105.56083332 21.00138890 13.98842239
105.56111110 21.00138890 15.43816662
105.56138888 21.00138890 14.01883411
105.56166666 21.00138890 12.51548862
105.56194443 21.00138890 12.57252979
105.56222221 21.00138890 12.28391457
105.56249999 21.00138890 12.78642082
105.56277777 21.00138890 10.79477119
105.56305554 21.00138890 10.70726776
105.56333332 21.00138890 12.82661533
105.56361110 21.00138890 12.91889477
105.56388888 21.00138890 12.50427628
105.56416666 21.00138890 13.96977615
105.56444443 21.00138890 13.43869591
105.56472221 21.00138890 13.68476772
105.56499999 21.00138890 13.12658691
105.56527777 21.00138890 9.20977402
105.56555554 21.00138890 8.21798706
105.56583332 21.00138890 11.70390320
105.56611110 21.00138890 11.64891338
105.56638888 21.00138890 10.57562542
105.56666666 21.00138890 12.52970982
105.56694443 21.00138890 13.69287586
105.56722221 21.00138890 14.38011265
105.56749999 21.00138890 14.40334702
105.56777777 21.00138890 13.51114178
105.56805554 21.00138890 9.41560555
105.56833332 21.00138890 6.61381674
105.56861110 21.00138890 6.10901117
105.56888888 21.00138890 5.50000000
105.56916666 21.00138890 5.50000000
105.56944443 21.00138890 5.50000000
105.56972221 21.00138890 5.50000000
105.56999999 21.00138890 5.50000000
105.57027777 21.00138890 6.37884045
105.57055554 21.00138890 6.68770266
105.57083332 21.00138890 7.08924007
105.57111110 21.00138890 6.74551392
105.57138888 21.00138890 7.67388868
105.57166666 21.00138890 8.08297253
105.57194443 21.00138890 8.03777218
105.57222221 21.00138890 5.50000000
105.57249999 21.00138890 5.50000000
105.57277777 21.00138890 5.50000000
105.57305554 21.00138890 6.01383305
105.50944443 21.00111112 32.99676514
105.50972221 21.00111112 32.77828979
105.50999999 21.00111112 31.39148140
105.51027777 21.00111112 27.08937836
105.51055554 21.00111112 25.64481544
105.51083332 21.00111112 26.03322601
105.51111110 21.00111112 28.19076920
105.51138888 21.00111112 29.68656921
105.51166666 21.00111112 30.93184662
105.51194443 21.00111112 32.26985550
105.51222221 21.00111112 33.90903473
105.51249999 21.00111112 33.92966843
105.51277777 21.00111112 32.97579956
105.51305554 21.00111112 32.35498428
105.51333332 21.00111112 32.20159531
105.51361110 21.00111112 31.70353317
105.51388888 21.00111112 31.06027603
105.51416666 21.00111112 29.15532112
105.51444443 21.00111112 25.57602119
105.51472221 21.00111112 26.43711090
105.51499999 21.00111112 27.95926666
105.51527777 21.00111112 26.61582184
105.51555554 21.00111112 20.98759651
105.51583332 21.00111112 18.58701324
105.51611110 21.00111112 18.39364243
105.51638888 21.00111112 18.19138908
105.51666666 21.00111112 17.98599625
105.51694443 21.00111112 17.87874031
105.51722221 21.00111112 17.49158669
105.51749999 21.00111112 17.38156509
105.51777777 21.00111112 18.00724030
105.51805554 21.00111112 19.36573410
105.51833332 21.00111112 19.51290321
105.51861110 21.00111112 20.54721832
105.51888888 21.00111112 21.68605232
105.51916666 21.00111112 22.23878860
105.51944443 21.00111112 24.10080910
105.51972221 21.00111112 25.07500267
105.51999999 21.00111112 24.49241829
105.52027777 21.00111112 25.74974632
105.52055554 21.00111112 27.55590630
105.52083332 21.00111112 28.82204056
105.52111110 21.00111112 28.72318268
105.52138888 21.00111112 29.54210854
105.52166666 21.00111112 27.29811287
105.52194443 21.00111112 26.33003044
105.52222221 21.00111112 25.30704498
105.52249999 21.00111112 23.63289833
105.52277777 21.00111112 21.83203697
105.52305554 21.00111112 19.52290344
105.52333332 21.00111112 18.44684792
105.52361110 21.00111112 16.96706581
105.52388888 21.00111112 18.05972290
105.52416666 21.00111112 18.61673355
105.52444443 21.00111112 17.79651451
105.52472221 21.00111112 15.17073631
105.52499999 21.00111112 14.38444138
105.52527777 21.00111112 14.46402168
105.52555554 21.00111112 14.21600151
105.52583332 21.00111112 14.31998062
105.52611110 21.00111112 15.17700481
105.52638888 21.00111112 18.52573586
105.52666666 21.00111112 18.54483604
105.52694443 21.00111112 15.39540386
105.52722221 21.00111112 13.65417767
105.52749999 21.00111112 13.58932114
105.52777777 21.00111112 13.49263954
105.52805554 21.00111112 13.40716267
105.52833332 21.00111112 13.33295918
105.52861110 21.00111112 13.85740280
105.52888888 21.00111112 14.33770084
105.52916666 21.00111112 12.72675705
105.52944443 21.00111112 13.58138371
105.52972221 21.00111112 15.73853683
105.52999999 21.00111112 15.53990269
105.53027777 21.00111112 13.52013874
105.53055554 21.00111112 12.53812885
105.53083332 21.00111112 14.04886627
105.53111110 21.00111112 14.19569206
105.53138888 21.00111112 13.27474308
105.53166666 21.00111112 12.34695339
105.53194443 21.00111112 12.40187550
105.53222221 21.00111112 14.45996380
105.53249999 21.00111112 15.79745102
105.53277777 21.00111112 16.11090660
105.53305554 21.00111112 15.34401321
105.53333332 21.00111112 13.46488476
105.53361110 21.00111112 12.79472542
105.53388888 21.00111112 12.36554527
105.53416666 21.00111112 14.04325771
105.53444443 21.00111112 14.22371101
105.53472221 21.00111112 12.27254391
105.53499999 21.00111112 11.27773952
105.53527777 21.00111112 11.01035690
105.53555554 21.00111112 11.04418945
105.53583332 21.00111112 11.48553085
105.53611110 21.00111112 12.53839493
105.53638888 21.00111112 14.66896343
105.53666666 21.00111112 16.25074005
105.53694443 21.00111112 15.59246159
105.53722221 21.00111112 15.43019962
105.53749999 21.00111112 14.72060585
105.53777777 21.00111112 15.32109451
105.53805554 21.00111112 15.36976051
105.53833332 21.00111112 14.34568882
105.53861110 21.00111112 14.46385479
105.53888888 21.00111112 14.43375587
105.53916666 21.00111112 14.32120228
105.53944443 21.00111112 14.60265160
105.53972221 21.00111112 14.77198887
105.53999999 21.00111112 14.68101692
105.54027777 21.00111112 14.24052906
105.54055554 21.00111112 14.90541649
105.54083332 21.00111112 14.64573288
105.54111110 21.00111112 14.54625797
105.54138888 21.00111112 15.12967396
105.54166666 21.00111112 14.99651337
105.54194443 21.00111112 15.79740429
