105.55888888 21.01416668 1.50533509
105.55916666 21.01416668 1.76409125
105.55944443 21.01416668 1.30842245
105.55972221 21.01416668 1.11626923
105.55999999 21.01416668 0.34888941
105.56027777 21.01416668 0.54472542
105.56055554 21.01416668 0.85991096
105.56083332 21.01416668 1.06325722
105.56111110 21.01416668 0.23496881
105.56138888 21.01416668 0.44341975
105.56166666 21.01416668 1.35695124
105.56194443 21.01416668 1.31382060
105.56222221 21.01416668 0.56611639
105.56249999 21.01416668 1.10161448
105.56277777 21.01416668 0.41385517
105.56305554 21.01416668 0.37740263
105.56333332 21.01416668 0.38068894
105.56361110 21.01416668 1.45155394
105.56388888 21.01416668 1.51953351
105.56416666 21.01416668 0.42860165
105.56444443 21.01416668 0.70283312
105.56472221 21.01416668 0.78924423
105.56499999 21.01416668 0.45875919
105.56527777 21.01416668 0.20519255
105.56555554 21.01416668 0.57089168
105.56583332 21.01416668 0.38820428
105.56611110 21.01416668 0.25424635
105.56638888 21.01416668 0.32544529
105.56666666 21.01416668 0.74840057
105.56694443 21.01416668 0.92915571
105.56722221 21.01416668 1.11450136
105.56749999 21.01416668 0.83426380
105.56777777 21.01416668 0.41940364
105.56805554 21.01416668 0.04524139
105.56833332 21.01416668 0.36318889
105.56861110 21.01416668 0.67119825
105.56888888 21.01416668 0.54569185
105.56916666 21.01416668 0.88354194
105.56944443 21.01416668 0.76338732
105.56972221 21.01416668 0.42434636
105.56999999 21.01416668 0.39202100
105.57027777 21.01416668 0.36825141
105.57055554 21.01416668 0.49113169
105.57083332 21.01416668 0.37068096
105.50416666 21.01388890 0.97992176
105.50444443 21.01388890 0.87381917
105.50472221 21.01388890 1.40170717
105.50499999 21.01388890 1.97425747
105.50527777 21.01388890 1.26168466
105.50555554 21.01388890 1.50896716
105.50583332 21.01388890 2.55081511
105.50611110 21.01388890 8.57145023
105.50638888 21.01388890 10.43679905
105.50666666 21.01388890 6.16942072
105.50694443 21.01388890 2.16013980
105.50722221 21.01388890 1.52693248
105.50749999 21.01388890 2.33507538
105.50777777 21.01388890 3.24084663
105.50805554 21.01388890 4.79636765
105.50833332 21.01388890 13.44371891
105.50861110 21.01388890 10.18272591
105.50888888 21.01388890 1.78949308
105.50916666 21.01388890 1.74690259
105.50944443 21.01388890 3.42800498
105.50972221 21.01388890 4.57330942
105.50999999 21.01388890 1.86664343
105.51027777 21.01388890 3.83382344
105.51055554 21.01388890 8.46124840
105.51083332 21.01388890 7.23756266
105.51111110 21.01388890 5.75361252
105.51138888 21.01388890 4.72816229
105.51166666 21.01388890 2.81237650
105.51194443 21.01388890 0.62079942
105.51222221 21.01388890 1.09574735
105.51249999 21.01388890 2.63058448
105.51277777 21.01388890 8.26968861
105.51305554 21.01388890 10.17926216
105.51333332 21.01388890 5.91091824
105.51361110 21.01388890 2.90368342
105.51388888 21.01388890 2.75977755
105.51416666 21.01388890 3.99990034
105.51444443 21.01388890 4.97177124
105.51472221 21.01388890 4.68198395
105.51499999 21.01388890 2.06109142
105.51527777 21.01388890 0.75249338
105.51555554 21.01388890 1.01901007
105.51583332 21.01388890 1.40832472
105.51611110 21.01388890 1.99225485
105.51638888 21.01388890 2.22939229
105.51666666 21.01388890 2.31808615
105.51694443 21.01388890 2.43199992
105.51722221 21.01388890 2.68081141
105.51749999 21.01388890 4.82945347
105.51777777 21.01388890 8.09507751
105.51805554 21.01388890 6.81050062
105.51833332 21.01388890 2.60787678
105.51861110 21.01388890 0.58856553
105.51888888 21.01388890 0.61639446
105.51916666 21.01388890 0.42309743
105.51944443 21.01388890 2.02009344
105.51972221 21.01388890 1.42757547
105.51999999 21.01388890 3.50340605
105.52027777 21.01388890 3.90678024
105.52055554 21.01388890 4.46338844
105.52083332 21.01388890 3.48527217
105.52111110 21.01388890 1.98906839
105.52138888 21.01388890 1.79982924
105.52166666 21.01388890 2.93498945
105.52194443 21.01388890 3.69080806
105.52222221 21.01388890 1.12133527
105.52249999 21.01388890 1.22038746
105.52277777 21.01388890 0.82776147
105.52305554 21.01388890 0.71291101
105.52333332 21.01388890 0.73557341
105.52361110 21.01388890 1.01917744
105.52388888 21.01388890 1.97014880
105.52416666 21.01388890 0.73933697
105.52444443 21.01388890 2.37653780
105.52472221 21.01388890 3.85494041
105.52499999 21.01388890 6.46222210
105.52527777 21.01388890 4.99834156
105.52555554 21.01388890 4.72388077
105.52583332 21.01388890 6.82090950
105.52611110 21.01388890 2.81937623
105.52638888 21.01388890 1.78611767
105.52666666 21.01388890 1.97291434
105.52694443 21.01388890 2.08668160
105.52722221 21.01388890 1.18618882
105.52749999 21.01388890 0.95545805
105.52777777 21.01388890 0.64934725
105.52805554 21.01388890 0.92877519
105.52833332 21.01388890 1.90763831
105.52861110 21.01388890 1.38101590
105.52888888 21.01388890 0.75734228
105.52916666 21.01388890 0.79119331
105.52944443 21.01388890 1.97279608
105.52972221 21.01388890 2.22594666
105.52999999 21.01388890 0.45829725
105.53027777 21.01388890 1.57344925
105.53055554 21.01388890 1.38089561
105.53083332 21.01388890 0.43977937
105.53111110 21.01388890 4.16853428
105.53138888 21.01388890 7.05080175
105.53166666 21.01388890 5.77818823
105.53194443 21.01388890 4.45727396
105.53222221 21.01388890 8.54122734
105.53249999 21.01388890 10.05480957
105.53277777 21.01388890 6.19073153
105.53305554 21.01388890 6.88132048
105.53333332 21.01388890 5.29218721
105.53361110 21.01388890 1.33192754
105.53388888 21.01388890 0.00000000
105.53416666 21.01388890 0.64292008
105.53444443 21.01388890 3.79961491
105.53472221 21.01388890 5.01234913
105.53499999 21.01388890 5.39084244
105.53527777 21.01388890 5.46527386
105.53555554 21.01388890 5.01131010
105.53583332 21.01388890 1.46043181
105.53611110 21.01388890 1.25512087
105.53638888 21.01388890 1.56016743
105.53666666 21.01388890 2.17665863
105.53694443 21.01388890 2.64386082
105.53722221 21.01388890 2.92273760
105.53749999 21.01388890 2.33151507
105.53777777 21.01388890 0.59463489
105.53805554 21.01388890 1.38249767
105.53833332 21.01388890 4.69310188
105.53861110 21.01388890 6.12585545
105.53888888 21.01388890 2.31542802
105.53916666 21.01388890 1.01487875
105.53944443 21.01388890 2.25322127
105.53972221 21.01388890 2.78475547
105.53999999 21.01388890 2.21252203
105.54027777 21.01388890 2.20283699
105.54055554 21.01388890 2.39543009
105.54083332 21.01388890 2.34602189
105.54111110 21.01388890 2.05938482
105.54138888 21.01388890 0.46691474
105.54166666 21.01388890 0.34963790
105.54194443 21.01388890 2.12333775
105.54222221 21.01388890 4.13365746
105.54249999 21.01388890 2.44743800
105.54277777 21.01388890 0.00000000
105.54305554 21.01388890 0.00000000
105.54333332 21.01388890 0.00000000
105.54361110 21.01388890 0.00000000
105.54388888 21.01388890 0.00000000
105.54416666 21.01388890 6.82032347
105.54444443 21.01388890 7.10625553
105.54472221 21.01388890 4.96361446
105.54499999 21.01388890 5.30216265
105.54527777 21.01388890 1.40727425
105.54555554 21.01388890 0.38354629
105.54583332 21.01388890 0.39215425
105.54611110 21.01388890 3.44062543
105.54638888 21.01388890 3.58765340
105.54666666 21.01388890 1.44622374
105.54694443 21.01388890 3.70267439
105.54722221 21.01388890 1.79167593
105.54749999 21.01388890 1.58178174
105.54777777 21.01388890 2.30797315
105.54805554 21.01388890 5.54783344
105.54833332 21.01388890 1.90394604
105.54861110 21.01388890 6.04421806
105.54888888 21.01388890 4.50585985
105.54916666 21.01388890 2.31541061
105.54944443 21.01388890 1.62313044
105.54972221 21.01388890 3.08356118
105.54999999 21.01388890 1.90163362
105.55027777 21.01388890 2.87383103
105.55055554 21.01388890 2.68185544
105.55083332 21.01388890 2.23583364
105.55111110 21.01388890 3.39148235
105.55138888 21.01388890 4.90706730
105.55166666 21.01388890 3.76219559
105.55194443 21.01388890 6.82358789
105.55222221 21.01388890 4.81749582
105.55249999 21.01388890 1.90879130
105.55277777 21.01388890 1.85136962
105.55305554 21.01388890 0.64642042
105.55333332 21.01388890 0.32612687
105.55361110 21.01388890 0.36385429
105.55388888 21.01388890 0.04260665
105.55416666 21.01388890 0.52626687
105.55444443 21.01388890 0.45573360
105.55472221 21.01388890 0.29602307
105.55499999 21.01388890 0.41812256
105.55527777 21.01388890 1.03356338
105.55555554 21.01388890 1.36967003
105.55583332 21.01388890 2.42931890
105.55611110 21.01388890 8.11414528
105.55638888 21.01388890 9.31029129
105.55666666 21.01388890 5.71745157
105.55694443 21.01388890 6.30746603
105.55722221 21.01388890 7.66427946
105.55749999 21.01388890 8.85767460
105.55777777 21.01388890 3.97998619
105.55805554 21.01388890 1.18957686
105.55833332 21.01388890 0.31574783
105.55861110 21.01388890 0.44439888
105.55888888 21.01388890 0.41229719
105.55916666 21.01388890 1.17975330
105.55944443 21.01388890 0.66874045
105.55972221 21.01388890 0.36652467
105.55999999 21.01388890 0.99948639
105.56027777 21.01388890 0.74950707
105.56055554 21.01388890 0.47535026
105.56083332 21.01388890 1.48343790
105.56111110 21.01388890 0.68047315
105.56138888 21.01388890 0.36061397
105.56166666 21.01388890 0.96539247
105.56194443 21.01388890 1.24541962
105.56222221 21.01388890 1.25276446
105.56249999 21.01388890 0.38136080
105.56277777 21.01388890 0.55021805
105.56305554 21.01388890 1.17283154
105.56333332 21.01388890 1.52762806
105.56361110 21.01388890 1.31363428
105.56388888 21.01388890 0.06966243
105.56416666 21.01388890 0.56372243
105.56444443 21.01388890 0.73368996
105.56472221 21.01388890 0.75721264
105.56499999 21.01388890 0.08888652
105.56527777 21.01388890 0.36017552
105.56555554 21.01388890 0.75075889
105.56583332 21.01388890 0.74913245
105.56611110 21.01388890 0.44449526
105.56638888 21.01388890 2.02065635
105.56666666 21.01388890 1.96468222
105.56694443 21.01388890 1.98980510
105.56722221 21.01388890 1.31446683
105.56749999 21.01388890 1.12464988
105.56777777 21.01388890 1.13148594
105.56805554 21.01388890 0.87253553
105.56833332 21.01388890 0.99288714
105.56861110 21.01388890 0.61611795
105.56888888 21.01388890 0.38431475
105.56916666 21.01388890 0.50086236
105.56944443 21.01388890 1.06966019
105.56972221 21.01388890 0.91378999
105.56999999 21.01388890 0.85280532
105.57027777 21.01388890 0.79070526
105.57055554 21.01388890 0.36725074
105.57083332 21.01388890 0.81832045
105.50416666 21.01361112 1.51370156
105.50444443 21.01361112 0.74989063
105.50472221 21.01361112 1.30891001
105.50499999 21.01361112 2.84721565
105.50527777 21.01361112 4.55598164
105.50555554 21.01361112 1.69041193
105.50583332 21.01361112 5.61721992
105.50611110 21.01361112 9.76777840
105.50638888 21.01361112 7.68053007
105.50666666 21.01361112 3.05616283
105.50694443 21.01361112 1.92759919
105.50722221 21.01361112 7.99610710
105.50749999 21.01361112 9.15080833
105.50777777 21.01361112 7.48916531
105.50805554 21.01361112 5.89853287
105.50833332 21.01361112 7.05916262
105.50861110 21.01361112 12.52758217
105.50888888 21.01361112 4.40569639
105.50916666 21.01361112 3.80144238
105.50944443 21.01361112 2.35187006
105.50972221 21.01361112 3.65374780
105.50999999 21.01361112 2.68492126
105.51027777 21.01361112 7.73383951
105.51055554 21.01361112 8.80717564
105.51083332 21.01361112 2.56814504
105.51111110 21.01361112 4.83219624
105.51138888 21.01361112 7.88675308
105.51166666 21.01361112 9.16035843
105.51194443 21.01361112 4.07414961
105.51222221 21.01361112 2.16487455
105.51249999 21.01361112 9.15384388
105.51277777 21.01361112 11.44536972
105.51305554 21.01361112 8.85505486
105.51333332 21.01361112 4.57934618
105.51361110 21.01361112 1.72944701
105.51388888 21.01361112 3.88176966
105.51416666 21.01361112 6.61499119
105.51444443 21.01361112 5.54534721
105.51472221 21.01361112 5.04566002
105.51499999 21.01361112 7.68127632
105.51527777 21.01361112 4.58390379
105.51555554 21.01361112 2.01801682
105.51583332 21.01361112 2.65401936
105.51611110 21.01361112 2.85420203
105.51638888 21.01361112 2.24287534
105.51666666 21.01361112 3.98496914
105.51694443 21.01361112 3.10923576
105.51722221 21.01361112 3.23557377
105.51749999 21.01361112 8.28345299
105.51777777 21.01361112 4.25518894
105.51805554 21.01361112 4.65727520
105.51833332 21.01361112 5.62171078
105.51861110 21.01361112 3.18693352
105.51888888 21.01361112 1.79789758
105.51916666 21.01361112 0.65564620
105.51944443 21.01361112 0.36929542
105.51972221 21.01361112 2.63593316
105.51999999 21.01361112 2.94476843
105.52027777 21.01361112 2.90889454
105.52055554 21.01361112 3.42272019
105.52083332 21.01361112 2.35243917
105.52111110 21.01361112 2.00502563
105.52138888 21.01361112 2.56424260
105.52166666 21.01361112 3.11136222
105.52194443 21.01361112 7.07833576
105.52222221 21.01361112 3.93651009
105.52249999 21.01361112 0.95472205
105.52277777 21.01361112 1.15778661
105.52305554 21.01361112 0.68789798
105.52333332 21.01361112 0.27158225
105.52361110 21.01361112 0.82390106
105.52388888 21.01361112 1.12835479
105.52416666 21.01361112 1.76669121
105.52444443 21.01361112 4.05421209
105.52472221 21.01361112 3.17659569
105.52499999 21.01361112 3.32119632
105.52527777 21.01361112 1.68398619
105.52555554 21.01361112 4.37103415
105.52583332 21.01361112 2.02687025
105.52611110 21.01361112 1.59342575
105.52638888 21.01361112 2.02521682
105.52666666 21.01361112 1.89845407
105.52694443 21.01361112 2.15897107
105.52722221 21.01361112 1.92525792
105.52749999 21.01361112 1.86605465
105.52777777 21.01361112 1.05658531
105.52805554 21.01361112 1.36063075
105.52833332 21.01361112 1.11670828
105.52861110 21.01361112 1.18836153
105.52888888 21.01361112 0.90774691
105.52916666 21.01361112 2.22434068
105.52944443 21.01361112 1.13925028
105.52972221 21.01361112 2.35269761
105.52999999 21.01361112 2.27246618
105.53027777 21.01361112 1.04017103
105.53055554 21.01361112 0.61103129
105.53083332 21.01361112 3.80519319
105.53111110 21.01361112 7.41610909
105.53138888 21.01361112 3.91162252
105.53166666 21.01361112 0.83995032
105.53194443 21.01361112 0.00000000
105.53222221 21.01361112 0.00000000
105.53249999 21.01361112 4.83712292
105.53277777 21.01361112 5.30194569
105.53305554 21.01361112 3.87232471
105.53333332 21.01361112 1.24344862
105.53361110 21.01361112 0.00000000
105.53388888 21.01361112 0.00000000
105.53416666 21.01361112 4.73742056
105.53444443 21.01361112 6.96819353
105.53472221 21.01361112 5.13204336
105.53499999 21.01361112 3.83241510
105.53527777 21.01361112 2.26298523
105.53555554 21.01361112 1.37628794
105.53583332 21.01361112 1.19395137
105.53611110 21.01361112 0.42059153
105.53638888 21.01361112 0.29462028
105.53666666 21.01361112 1.01104927
105.53694443 21.01361112 0.28795502
105.53722221 21.01361112 0.33841261
105.53749999 21.01361112 1.58353138
105.53777777 21.01361112 0.16320179
105.53805554 21.01361112 1.35981548
105.53833332 21.01361112 3.22745132
105.53861110 21.01361112 2.79631662
105.53888888 21.01361112 1.26058674
105.53916666 21.01361112 1.65721881
105.53944443 21.01361112 1.26978278
105.53972221 21.01361112 1.32232213
105.53999999 21.01361112 0.65349865
105.54027777 21.01361112 1.28586638
105.54055554 21.01361112 1.34265506
105.54083332 21.01361112 0.26559702
105.54111110 21.01361112 1.95482814
105.54138888 21.01361112 0.89703441
105.54166666 21.01361112 1.17808449
105.54194443 21.01361112 3.06570745
105.54222221 21.01361112 3.67158985
105.54249999 21.01361112 1.56453872
105.54277777 21.01361112 0.00000000
105.54305554 21.01361112 0.00000000
105.54333332 21.01361112 0.00000000
105.54361110 21.01361112 0.00000000
105.54388888 21.01361112 4.47270584
105.54416666 21.01361112 6.34466934
105.54444443 21.01361112 1.01794088
105.54472221 21.01361112 1.72232318
105.54499999 21.01361112 2.29225683
105.54527777 21.01361112 4.74287844
105.54555554 21.01361112 3.21458507
105.54583332 21.01361112 4.64828300
105.54611110 21.01361112 4.27357626
105.54638888 21.01361112 4.74284172
105.54666666 21.01361112 4.63615656
105.54694443 21.01361112 0.28533742
105.54722221 21.01361112 3.32408881
105.54749999 21.01361112 1.95893764
105.54777777 21.01361112 0.29013261
105.54805554 21.01361112 4.49037838
105.54833332 21.01361112 6.32069063
105.54861110 21.01361112 0.59579903
105.54888888 21.01361112 3.78701305
105.54916666 21.01361112 1.37931919
105.54944443 21.01361112 1.80950332
105.54972221 21.01361112 1.19791996
105.54999999 21.01361112 3.45362592
105.55027777 21.01361112 4.82380295
105.55055554 21.01361112 2.62538791
105.55083332 21.01361112 1.89101636
105.55111110 21.01361112 2.63253808
105.55138888 21.01361112 7.41049194
105.55166666 21.01361112 6.79802036
105.55194443 21.01361112 6.36311054
105.55222221 21.01361112 3.23315191
105.55249999 21.01361112 0.96766108
105.55277777 21.01361112 2.25350308
105.55305554 21.01361112 1.06780338
105.55333332 21.01361112 0.92005819
105.55361110 21.01361112 0.70397758
105.55388888 21.01361112 0.87969506
105.55416666 21.01361112 0.27788189
105.55444443 21.01361112 0.27667946
105.55472221 21.01361112 0.40303394
105.55499999 21.01361112 0.89870942
105.55527777 21.01361112 1.10056901
105.55555554 21.01361112 1.51988339
105.55583332 21.01361112 6.09035826
105.55611110 21.01361112 7.77141380
105.55638888 21.01361112 5.75089693
105.55666666 21.01361112 1.84644639
105.55694443 21.01361112 2.51297069
105.55722221 21.01361112 2.78902888
105.55749999 21.01361112 5.97407150
105.55777777 21.01361112 6.50044155
105.55805554 21.01361112 2.05242872
105.55833332 21.01361112 1.45438755
105.55861110 21.01361112 0.93862361
105.55888888 21.01361112 0.22301024
105.55916666 21.01361112 0.71082300
105.55944443 21.01361112 1.24990678
105.55972221 21.01361112 0.72105652
105.55999999 21.01361112 0.28336975
105.56027777 21.01361112 0.31601036
105.56055554 21.01361112 0.70389515
105.56083332 21.01361112 1.17963946
105.56111110 21.01361112 0.81089646
105.56138888 21.01361112 0.19861647
105.56166666 21.01361112 0.25610504
105.56194443 21.01361112 0.60300046
105.56222221 21.01361112 0.63267273
105.56249999 21.01361112 1.05244732
105.56277777 21.01361112 1.29214096
105.56305554 21.01361112 1.14098954
105.56333332 21.01361112 0.53094101
105.56361110 21.01361112 0.33607388
105.56388888 21.01361112 1.10338306
105.56416666 21.01361112 0.68074077
105.56444443 21.01361112 0.60599464
105.56472221 21.01361112 0.85796666
105.56499999 21.01361112 0.52944446
105.56527777 21.01361112 0.40030810
105.56555554 21.01361112 0.93342686
105.56583332 21.01361112 0.26986188
105.56611110 21.01361112 1.99052489
105.56638888 21.01361112 2.02269006
105.56666666 21.01361112 1.53015959
105.56694443 21.01361112 1.34457839
105.56722221 21.01361112 0.15327498
105.56749999 21.01361112 0.57000768
105.56777777 21.01361112 0.47622684
105.56805554 21.01361112 0.64192188
105.56833332 21.01361112 1.06088710
105.56861110 21.01361112 0.81559438
105.56888888 21.01361112 0.97635543
105.56916666 21.01361112 1.06738448
105.56944443 21.01361112 0.21646781
105.56972221 21.01361112 0.39417231
105.56999999 21.01361112 0.47235078
105.57027777 21.01361112 0.55873007
105.57055554 21.01361112 0.32579404
105.57083332 21.01361112 0.66089505
105.50444443 21.01333334 0.60822773
105.50472221 21.01333334 1.93230689
105.50499999 21.01333334 4.39190149
105.50527777 21.01333334 3.88715768
105.50555554 21.01333334 2.63892984
105.50583332 21.01333334 4.44343519
105.50611110 21.01333334 3.59218836
105.50638888 21.01333334 8.16884708
105.50666666 21.01333334 9.21722794
105.50694443 21.01333334 9.07099724
105.50722221 21.01333334 12.11585712
105.50749999 21.01333334 8.93566990
105.50777777 21.01333334 7.59992027
105.50805554 21.01333334 7.97576857
105.50833332 21.01333334 4.53259087
105.50861110 21.01333334 7.61172104
105.50888888 21.01333334 7.17182636
105.50916666 21.01333334 0.25321686
105.50944443 21.01333334 2.71227837
105.50972221 21.01333334 2.63925242
105.50999999 21.01333334 4.15422058
105.51027777 21.01333334 7.37203455
105.51055554 21.01333334 3.01614952
105.51083332 21.01333334 2.05028844
105.51111110 21.01333334 3.07399297
105.51138888 21.01333334 3.33534718
105.51166666 21.01333334 8.67496586
105.51194443 21.01333334 7.64968109
105.51222221 21.01333334 2.23632550
105.51249999 21.01333334 10.51530170
105.51277777 21.01333334 10.76413631
105.51305554 21.01333334 4.36672306
105.51333332 21.01333334 6.34099531
105.51361110 21.01333334 2.47644114
105.51388888 21.01333334 4.46856403
105.51416666 21.01333334 4.30346823
105.51444443 21.01333334 1.07585311
105.51472221 21.01333334 0.93605679
105.51499999 21.01333334 3.72459745
105.51527777 21.01333334 7.44030333
105.51555554 21.01333334 3.92740655
105.51583332 21.01333334 3.10964942
105.51611110 21.01333334 3.84233952
105.51638888 21.01333334 3.46058798
105.51666666 21.01333334 0.74497247
105.51694443 21.01333334 2.41722798
105.51722221 21.01333334 1.01076484
105.51749999 21.01333334 4.06197643
105.51777777 21.01333334 7.27374172
105.51805554 21.01333334 6.07882738
105.51833332 21.01333334 1.84956777
105.51861110 21.01333334 2.88824153
105.51888888 21.01333334 1.74208319
105.51916666 21.01333334 0.44852507
105.51944443 21.01333334 0.93891394
105.51972221 21.01333334 1.51440704
105.51999999 21.01333334 2.31108952
105.52027777 21.01333334 2.70847273
105.52055554 21.01333334 3.45402050
105.52083332 21.01333334 1.70641279
105.52111110 21.01333334 1.40821755
105.52138888 21.01333334 2.15703201
105.52166666 21.01333334 2.73787308
105.52194443 21.01333334 5.94014072
105.52222221 21.01333334 4.02296734
105.52249999 21.01333334 0.72641808
105.52277777 21.01333334 1.39319623
105.52305554 21.01333334 1.38181007
105.52333332 21.01333334 0.26165095
105.52361110 21.01333334 0.32616976
105.52388888 21.01333334 0.94550973
105.52416666 21.01333334 2.19497800
105.52444443 21.01333334 3.11289382
105.52472221 21.01333334 3.86574984
105.52499999 21.01333334 4.54285765
105.52527777 21.01333334 5.04242659
105.52555554 21.01333334 5.12003326
105.52583332 21.01333334 1.54086852
105.52611110 21.01333334 0.93530709
105.52638888 21.01333334 1.43613493
105.52666666 21.01333334 0.10975648
105.52694443 21.01333334 0.47046146
105.52722221 21.01333334 0.85652393
105.52749999 21.01333334 0.77656811
105.52777777 21.01333334 0.30449843
105.52805554 21.01333334 0.74958867
105.52833332 21.01333334 0.65127963
105.52861110 21.01333334 0.92732614
105.52888888 21.01333334 1.51537049
105.52916666 21.01333334 0.71233249
105.52944443 21.01333334 0.61273181
105.52972221 21.01333334 0.25200856
105.52999999 21.01333334 2.86984372
105.53027777 21.01333334 1.20079041
105.53055554 21.01333334 2.96430326
105.53083332 21.01333334 7.24410677
105.53111110 21.01333334 3.91014290
105.53138888 21.01333334 0.00000000
105.53166666 21.01333334 0.00000000
105.53194443 21.01333334 0.00000000
105.53222221 21.01333334 1.91945171
105.53249999 21.01333334 0.00000000
105.53277777 21.01333334 0.00000000
105.53305554 21.01333334 0.00000000
105.53333332 21.01333334 0.00000000
105.53361110 21.01333334 0.00000000
105.53388888 21.01333334 3.32044697
105.53416666 21.01333334 7.38607359
105.53444443 21.01333334 4.59574747
105.53472221 21.01333334 1.66339266
105.53499999 21.01333334 1.23266101
105.53527777 21.01333334 1.25307751
105.53555554 21.01333334 1.16302180
105.53583332 21.01333334 1.03418112
105.53611110 21.01333334 2.08788991
105.53638888 21.01333334 2.88223910
105.53666666 21.01333334 2.06633902
105.53694443 21.01333334 2.27067447
105.53722221 21.01333334 1.73761857
105.53749999 21.01333334 2.04534888
105.53777777 21.01333334 2.52156925
105.53805554 21.01333334 2.86543894
105.53833332 21.01333334 3.52644515
105.53861110 21.01333334 2.62034774
105.53888888 21.01333334 1.19472516
105.53916666 21.01333334 0.81141615
105.53944443 21.01333334 1.33598435
105.53972221 21.01333334 2.57538962
105.53999999 21.01333334 1.76162422
105.54027777 21.01333334 1.27830470
105.54055554 21.01333334 1.18972540
105.54083332 21.01333334 1.48559093
105.54111110 21.01333334 1.72675502
105.54138888 21.01333334 3.70001578
105.54166666 21.01333334 3.14147854
105.54194443 21.01333334 4.41232491
105.54222221 21.01333334 2.52714467
105.54249999 21.01333334 0.00000000
105.54277777 21.01333334 0.00000000
105.54305554 21.01333334 0.00000000
105.54333332 21.01333334 0.00000000
105.54361110 21.01333334 2.53952146
105.54388888 21.01333334 6.29862595
105.54416666 21.01333334 4.70131302
105.54444443 21.01333334 0.77670002
105.54472221 21.01333334 1.97104013
105.54499999 21.01333334 2.11547637
105.54527777 21.01333334 1.03346062
105.54555554 21.01333334 0.95312214
105.54583332 21.01333334 1.02226651
105.54611110 21.01333334 1.24877143
105.54638888 21.01333334 1.59371877
105.54666666 21.01333334 4.62985134
105.54694443 21.01333334 4.20297194
105.54722221 21.01333334 2.25811028
105.54749999 21.01333334 1.46851206
105.54777777 21.01333334 7.19700909
105.54805554 21.01333334 5.76352215
105.54833332 21.01333334 1.34716284
105.54861110 21.01333334 4.56061172
105.54888888 21.01333334 4.16240120
105.54916666 21.01333334 3.46556354
105.54944443 21.01333334 4.10164309
105.54972221 21.01333334 4.49906158
105.54999999 21.01333334 6.35627794
105.55027777 21.01333334 5.74973059
105.55055554 21.01333334 3.52161241
105.55083332 21.01333334 1.01873004
105.55111110 21.01333334 3.47062302
105.55138888 21.01333334 11.80644608
105.55166666 21.01333334 6.75775480
105.55194443 21.01333334 3.27242565
105.55222221 21.01333334 0.38688180
105.55249999 21.01333334 0.18908495
105.55277777 21.01333334 1.72610712
105.55305554 21.01333334 1.98246026
105.55333332 21.01333334 1.39423096
105.55361110 21.01333334 1.41420782
105.55388888 21.01333334 2.15801954
105.55416666 21.01333334 1.71908271
105.55444443 21.01333334 0.82307494
105.55472221 21.01333334 1.00233889
105.55499999 21.01333334 1.04841733
105.55527777 21.01333334 1.32922411
105.55555554 21.01333334 4.60142136
105.55583332 21.01333334 6.81050968
105.55611110 21.01333334 5.87592316
105.55638888 21.01333334 1.85824049
105.55666666 21.01333334 1.65125835
105.55694443 21.01333334 3.16569424
105.55722221 21.01333334 7.48700428
105.55749999 21.01333334 9.31012726
105.55777777 21.01333334 2.19979954
105.55805554 21.01333334 0.98211044
105.55833332 21.01333334 1.13168573
105.55861110 21.01333334 1.51043677
105.55888888 21.01333334 1.21906400
105.55916666 21.01333334 1.02126253
105.55944443 21.01333334 0.68425727
105.55972221 21.01333334 1.15345669
105.55999999 21.01333334 0.99723840
105.56027777 21.01333334 0.84110373
105.56055554 21.01333334 0.51425791
105.56083332 21.01333334 0.92979538
105.56111110 21.01333334 1.49194896
105.56138888 21.01333334 0.13876937
105.56166666 21.01333334 0.43460724
105.56194443 21.01333334 0.40636823
105.56222221 21.01333334 0.98878092
105.56249999 21.01333334 1.56546032
105.56277777 21.01333334 0.75673163
105.56305554 21.01333334 0.25851849
105.56333332 21.01333334 0.13177019
105.56361110 21.01333334 0.84061372
105.56388888 21.01333334 0.87250179
105.56416666 21.01333334 1.80257463
105.56444443 21.01333334 1.32594478
105.56472221 21.01333334 1.01739264
105.56499999 21.01333334 1.04921269
105.56527777 21.01333334 1.57461619
105.56555554 21.01333334 0.73916495
105.56583332 21.01333334 0.65510291
105.56611110 21.01333334 2.00155497
105.56638888 21.01333334 1.68301034
105.56666666 21.01333334 0.51584619
105.56694443 21.01333334 0.25442660
105.56722221 21.01333334 0.41139671
105.56749999 21.01333334 0.58575028
105.56777777 21.01333334 0.24500200
105.56805554 21.01333334 0.66153044
105.56833332 21.01333334 0.66504502
105.56861110 21.01333334 0.56788331
105.56888888 21.01333334 0.63842541
105.56916666 21.01333334 1.13872492
105.56944443 21.01333334 1.33102167
105.56972221 21.01333334 0.91416055
105.56999999 21.01333334 0.52295774
105.57027777 21.01333334 0.22440518
105.57055554 21.01333334 0.70509362
105.57083332 21.01333334 0.50038326
105.50444443 21.01305557 1.40065622
105.50472221 21.01305557 2.18864727
105.50499999 21.01305557 2.64064002
105.50527777 21.01305557 2.63319874
105.50555554 21.01305557 4.27100658
105.50583332 21.01305557 1.49137509
105.50611110 21.01305557 0.17548932
105.50638888 21.01305557 1.08409774
105.50666666 21.01305557 4.84304905
105.50694443 21.01305557 6.99152851
105.50722221 21.01305557 3.23425674
105.50749999 21.01305557 1.48821199
105.50777777 21.01305557 2.00799251
105.50805554 21.01305557 3.64181232
105.50833332 21.01305557 5.00081062
105.50861110 21.01305557 3.28948593
105.50888888 21.01305557 6.71950293
105.50916666 21.01305557 3.24753237
105.50944443 21.01305557 1.33200693
105.50972221 21.01305557 0.24147734
105.50999999 21.01305557 3.44220638
105.51027777 21.01305557 5.60174751
105.51055554 21.01305557 3.53317547
105.51083332 21.01305557 4.17424774
105.51111110 21.01305557 3.68320274
105.51138888 21.01305557 1.57335269
105.51166666 21.01305557 7.64456272
105.51194443 21.01305557 10.02163410
105.51222221 21.01305557 6.39087486
105.51249999 21.01305557 8.26449966
105.51277777 21.01305557 13.60927200
105.51305554 21.01305557 5.40698338
105.51333332 21.01305557 5.18883371
105.51361110 21.01305557 2.82457256
105.51388888 21.01305557 4.02441597
105.51416666 21.01305557 2.22817469
105.51444443 21.01305557 1.81141210
105.51472221 21.01305557 1.06579876
105.51499999 21.01305557 1.52308929
105.51527777 21.01305557 2.47535133
105.51555554 21.01305557 3.10514164
105.51583332 21.01305557 0.52198690
105.51611110 21.01305557 0.52900165
105.51638888 21.01305557 3.40488029
105.51666666 21.01305557 3.26107454
105.51694443 21.01305557 0.95503110
105.51722221 21.01305557 1.34144986
105.51749999 21.01305557 1.63225567
105.51777777 21.01305557 3.60866022
105.51805554 21.01305557 3.66076589
105.51833332 21.01305557 3.90994310
105.51861110 21.01305557 2.91573143
105.51888888 21.01305557 1.91586947
105.51916666 21.01305557 1.01335692
105.51944443 21.01305557 0.67646235
105.51972221 21.01305557 1.97826219
105.51999999 21.01305557 2.05877566
105.52027777 21.01305557 1.77174592
105.52055554 21.01305557 3.07312846
105.52083332 21.01305557 2.39058399
105.52111110 21.01305557 0.76971745
105.52138888 21.01305557 3.27796006
105.52166666 21.01305557 2.72589135
105.52194443 21.01305557 7.40512848
105.52222221 21.01305557 6.98948908
105.52249999 21.01305557 1.68711019
105.52277777 21.01305557 0.95794427
105.52305554 21.01305557 1.61152768
105.52333332 21.01305557 0.94765121
105.52361110 21.01305557 0.90655285
105.52388888 21.01305557 0.79453701
105.52416666 21.01305557 1.54930043
105.52444443 21.01305557 3.73111033
105.52472221 21.01305557 4.34048700
105.52499999 21.01305557 3.78446817
105.52527777 21.01305557 3.77738023
105.52555554 21.01305557 9.07109165
105.52583332 21.01305557 5.95577955
105.52611110 21.01305557 1.00144553
105.52638888 21.01305557 0.96284354
105.52666666 21.01305557 1.41092515
105.52694443 21.01305557 0.63101447
105.52722221 21.01305557 0.19141524
105.52749999 21.01305557 0.34515366
105.52777777 21.01305557 0.34905177
105.52805554 21.01305557 0.08962360
105.52833332 21.01305557 0.91484904
105.52861110 21.01305557 1.52752554
105.52888888 21.01305557 0.07675850
105.52916666 21.01305557 0.65070212
105.52944443 21.01305557 0.31440544
105.52972221 21.01305557 1.93662894
105.52999999 21.01305557 2.75321078
105.53027777 21.01305557 3.55944371
105.53055554 21.01305557 5.94446611
105.53083332 21.01305557 4.08329296
105.53111110 21.01305557 0.00000000
105.53138888 21.01305557 0.00000000
105.53166666 21.01305557 3.12646151
105.53194443 21.01305557 4.83124781
105.53222221 21.01305557 4.15143013
105.53249999 21.01305557 4.57220364
105.53277777 21.01305557 3.13607383
105.53305554 21.01305557 1.56305206
105.53333332 21.01305557 0.90790105
105.53361110 21.01305557 0.00000000
105.53388888 21.01305557 5.02576113
105.53416666 21.01305557 6.81391859
105.53444443 21.01305557 1.88942707
105.53472221 21.01305557 0.81114781
105.53499999 21.01305557 0.92501199
105.53527777 21.01305557 0.51532727
105.53555554 21.01305557 1.12554896
105.53583332 21.01305557 1.65627456
105.53611110 21.01305557 2.76340747
105.53638888 21.01305557 2.24234939
105.53666666 21.01305557 2.91480446
105.53694443 21.01305557 1.63746512
105.53722221 21.01305557 3.64397073
105.53749999 21.01305557 4.10892439
105.53777777 21.01305557 3.65875077
105.53805554 21.01305557 6.75828838
105.53833332 21.01305557 5.09144926
105.53861110 21.01305557 1.55214751
105.53888888 21.01305557 1.40693438
105.53916666 21.01305557 3.03955531
105.53944443 21.01305557 2.87101436
105.53972221 21.01305557 0.59474617
105.53999999 21.01305557 1.51737690
105.54027777 21.01305557 1.70552230
105.54055554 21.01305557 0.19114354
105.54083332 21.01305557 1.53016543
105.54111110 21.01305557 2.54062653
105.54138888 21.01305557 5.85510445
105.54166666 21.01305557 7.54803133
105.54194443 21.01305557 2.89739251
105.54222221 21.01305557 0.00000000
105.54249999 21.01305557 0.00000000
105.54277777 21.01305557 0.00000000
105.54305554 21.01305557 0.00000000
105.54333332 21.01305557 3.07769728
105.54361110 21.01305557 6.09299278
105.54388888 21.01305557 4.91224861
105.54416666 21.01305557 0.36868286
105.54444443 21.01305557 1.18837118
105.54472221 21.01305557 1.01552594
105.54499999 21.01305557 0.84951180
105.54527777 21.01305557 1.05468309
105.54555554 21.01305557 0.36041787
105.54583332 21.01305557 0.79678619
105.54611110 21.01305557 1.27551639
105.54638888 21.01305557 0.99448586
105.54666666 21.01305557 1.42641687
105.54694443 21.01305557 4.32689667
105.54722221 21.01305557 4.16262674
105.54749999 21.01305557 6.68074369
105.54777777 21.01305557 7.18745470
105.54805554 21.01305557 3.41604829
105.54833332 21.01305557 3.79092026
105.54861110 21.01305557 2.73970819
105.54888888 21.01305557 1.34145904
105.54916666 21.01305557 1.46443868
105.54944443 21.01305557 1.84838545
105.54972221 21.01305557 1.95987582
105.54999999 21.01305557 4.63861990
105.55027777 21.01305557 2.54152679
105.55055554 21.01305557 3.75485277
105.55083332 21.01305557 3.35475945
105.55111110 21.01305557 10.89534283
105.55138888 21.01305557 11.09747791
105.55166666 21.01305557 2.08344388
105.55194443 21.01305557 2.64851427
105.55222221 21.01305557 0.79115170
105.55249999 21.01305557 0.52559954
105.55277777 21.01305557 0.76093149
105.55305554 21.01305557 1.89368451
105.55333332 21.01305557 1.90269589
105.55361110 21.01305557 1.72527683
105.55388888 21.01305557 1.84040999
105.55416666 21.01305557 2.41359830
105.55444443 21.01305557 1.35680723
105.55472221 21.01305557 1.05479038
105.55499999 21.01305557 0.74441755
105.55527777 21.01305557 2.52390528
105.55555554 21.01305557 6.47703457
105.55583332 21.01305557 6.06366014
105.55611110 21.01305557 3.55264401
105.55638888 21.01305557 0.30001128
105.55666666 21.01305557 2.72956991
105.55694443 21.01305557 7.08577728
105.55722221 21.01305557 8.46722698
105.55749999 21.01305557 3.01733112
105.55777777 21.01305557 6.07652998
105.55805554 21.01305557 5.91173410
105.55833332 21.01305557 5.03310490
105.55861110 21.01305557 1.02624631
105.55888888 21.01305557 1.81962466
105.55916666 21.01305557 1.22915924
105.55944443 21.01305557 0.86561143
105.55972221 21.01305557 0.88413578
105.55999999 21.01305557 0.68148553
105.56027777 21.01305557 1.07931161
105.56055554 21.01305557 1.02226889
105.56083332 21.01305557 0.09007145
105.56111110 21.01305557 1.54938793
105.56138888 21.01305557 1.11451268
105.56166666 21.01305557 0.56123728
105.56194443 21.01305557 0.66453516
105.56222221 21.01305557 1.46015561
105.56249999 21.01305557 0.89923787
105.56277777 21.01305557 0.16289222
105.56305554 21.01305557 0.70205981
105.56333332 21.01305557 0.87337416
105.56361110 21.01305557 1.47578812
105.56388888 21.01305557 1.43268096
105.56416666 21.01305557 1.54715550
105.56444443 21.01305557 1.36138654
105.56472221 21.01305557 1.13418782
105.56499999 21.01305557 1.51528168
105.56527777 21.01305557 0.85887200
105.56555554 21.01305557 0.74389112
105.56583332 21.01305557 1.01214051
105.56611110 21.01305557 2.25339985
105.56638888 21.01305557 1.24427378
105.56666666 21.01305557 0.43960184
105.56694443 21.01305557 0.14801407
105.56722221 21.01305557 0.66241413
105.56749999 21.01305557 0.52307254
105.56777777 21.01305557 0.49055314
105.56805554 21.01305557 0.79122347
105.56833332 21.01305557 0.34448788
105.56861110 21.01305557 0.68419176
105.56888888 21.01305557 0.47712731
105.56916666 21.01305557 0.34235507
105.56944443 21.01305557 0.75274509
105.56972221 21.01305557 1.12340200
105.56999999 21.01305557 0.89807749
105.57027777 21.01305557 0.36564687
105.57055554 21.01305557 0.49650165
105.57083332 21.01305557 0.26130694
105.50472221 21.01277779 1.94688165
105.50499999 21.01277779 1.43515193
105.50527777 21.01277779 3.49186444
105.50555554 21.01277779 1.64586735
105.50583332 21.01277779 0.29952890
105.50611110 21.01277779 0.80874044
105.50638888 21.01277779 1.11993158
105.50666666 21.01277779 1.35168481
105.50694443 21.01277779 1.48719013
105.50722221 21.01277779 2.45006990
105.50749999 21.01277779 3.04925513
105.50777777 21.01277779 1.29159760
105.50805554 21.01277779 1.46697867
105.50833332 21.01277779 2.84136772
105.50861110 21.01277779 3.24547720
105.50888888 21.01277779 4.86705732
105.50916666 21.01277779 3.12288094
105.50944443 21.01277779 0.67600709
105.50972221 21.01277779 1.27360141
105.50999999 21.01277779 1.29882121
105.51027777 21.01277779 5.82878590
105.51055554 21.01277779 6.61925507
105.51083332 21.01277779 5.32903624
105.51111110 21.01277779 0.56188178
105.51138888 21.01277779 3.89885497
105.51166666 21.01277779 1.16961157
105.51194443 21.01277779 8.47287941
105.51222221 21.01277779 11.43357563
105.51249999 21.01277779 9.00937653
105.51277777 21.01277779 5.35979271
105.51305554 21.01277779 8.94482422
105.51333332 21.01277779 3.72040129
105.51361110 21.01277779 3.48815393
105.51388888 21.01277779 3.62356758
105.51416666 21.01277779 3.87157679
105.51444443 21.01277779 4.40412283
105.51472221 21.01277779 2.07854581
105.51499999 21.01277779 3.75833678
105.51527777 21.01277779 6.08785152
105.51555554 21.01277779 2.89011908
105.51583332 21.01277779 1.24247551
105.51611110 21.01277779 2.00149822
105.51638888 21.01277779 0.76225471
105.51666666 21.01277779 3.77901077
105.51694443 21.01277779 5.29101419
105.51722221 21.01277779 2.54838443
105.51749999 21.01277779 1.89678752
105.51777777 21.01277779 1.41976666
105.51805554 21.01277779 1.15790462
105.51833332 21.01277779 2.84574318
105.51861110 21.01277779 1.83075988
105.51888888 21.01277779 0.99000561
105.51916666 21.01277779 2.18545246
105.51944443 21.01277779 1.01559365
105.51972221 21.01277779 1.88167465
105.51999999 21.01277779 2.88054466
105.52027777 21.01277779 3.98748136
105.52055554 21.01277779 3.38840103
105.52083332 21.01277779 0.63529932
105.52111110 21.01277779 1.95627522
105.52138888 21.01277779 1.22464490
105.52166666 21.01277779 3.70036101
105.52194443 21.01277779 6.21488857
105.52222221 21.01277779 5.98674440
105.52249999 21.01277779 2.52669263
105.52277777 21.01277779 2.22281003
105.52305554 21.01277779 2.28488731
105.52333332 21.01277779 0.84926140
105.52361110 21.01277779 0.62695569
105.52388888 21.01277779 0.37083066
105.52416666 21.01277779 0.83662480
105.52444443 21.01277779 3.33091474
105.52472221 21.01277779 6.39409256
105.52499999 21.01277779 6.96654415
105.52527777 21.01277779 5.37930727
105.52555554 21.01277779 3.98360181
105.52583332 21.01277779 8.90381336
105.52611110 21.01277779 2.80827451
105.52638888 21.01277779 1.30421329
105.52666666 21.01277779 2.40003896
105.52694443 21.01277779 1.46835029
105.52722221 21.01277779 0.30352902
105.52749999 21.01277779 0.12635767
105.52777777 21.01277779 0.39077762
105.52805554 21.01277779 0.93368638
105.52833332 21.01277779 1.04546130
105.52861110 21.01277779 1.11553729
105.52888888 21.01277779 0.69065630
105.52916666 21.01277779 0.63377517
105.52944443 21.01277779 1.93768787
105.52972221 21.01277779 4.56014442
105.52999999 21.01277779 3.29799247
105.53027777 21.01277779 1.80404127
105.53055554 21.01277779 1.50295258
105.53083332 21.01277779 0.66680086
105.53111110 21.01277779 0.00000000
105.53138888 21.01277779 3.34851623
105.53166666 21.01277779 6.01533747
105.53194443 21.01277779 4.55109024
105.53222221 21.01277779 2.61359406
105.53249999 21.01277779 4.95920086
105.53277777 21.01277779 5.47688150
105.53305554 21.01277779 4.82729816
105.53333332 21.01277779 4.05793905
105.53361110 21.01277779 2.28058314
105.53388888 21.01277779 4.73129082
105.53416666 21.01277779 5.94618130
105.53444443 21.01277779 2.40395260
105.53472221 21.01277779 0.13129359
105.53499999 21.01277779 1.14773262
105.53527777 21.01277779 1.16937637
105.53555554 21.01277779 1.31056178
105.53583332 21.01277779 1.07260001
105.53611110 21.01277779 0.94903904
105.53638888 21.01277779 0.25854093
105.53666666 21.01277779 1.91115355
105.53694443 21.01277779 1.66713047
105.53722221 21.01277779 1.61369169
105.53749999 21.01277779 4.23128128
105.53777777 21.01277779 7.94330025
105.53805554 21.01277779 8.22508430
105.53833332 21.01277779 5.35177851
105.53861110 21.01277779 3.82665610
105.53888888 21.01277779 2.78718758
105.53916666 21.01277779 1.96356976
105.53944443 21.01277779 0.95209450
105.53972221 21.01277779 1.75527167
105.53999999 21.01277779 1.37519050
105.54027777 21.01277779 0.55909324
105.54055554 21.01277779 0.35342082
105.54083332 21.01277779 0.19198637
105.54111110 21.01277779 6.38756132
105.54138888 21.01277779 7.79679441
105.54166666 21.01277779 2.02222872
105.54194443 21.01277779 0.00000000
105.54222221 21.01277779 0.00000000
105.54249999 21.01277779 0.00000000
105.54277777 21.01277779 0.00000000
105.54305554 21.01277779 1.85606992
105.54333332 21.01277779 5.26990557
105.54361110 21.01277779 3.56745768
105.54388888 21.01277779 0.52964336
105.54416666 21.01277779 0.81445885
105.54444443 21.01277779 0.87700367
105.54472221 21.01277779 0.77772510
105.54499999 21.01277779 0.69097376
105.54527777 21.01277779 1.62931383
105.54555554 21.01277779 1.26981318
105.54583332 21.01277779 0.42930102
105.54611110 21.01277779 1.22325277
105.54638888 21.01277779 1.01239240
105.54666666 21.01277779 1.76427877
105.54694443 21.01277779 0.48788640
105.54722221 21.01277779 3.89815187
105.54749999 21.01277779 4.39482307
105.54777777 21.01277779 5.46724463
105.54805554 21.01277779 2.35700512
105.54833332 21.01277779 4.45881128
105.54861110 21.01277779 2.68620276
105.54888888 21.01277779 0.68286031
105.54916666 21.01277779 0.29511434
105.54944443 21.01277779 2.61397076
105.54972221 21.01277779 1.36763597
105.54999999 21.01277779 3.99677181
105.55027777 21.01277779 2.17708564
105.55055554 21.01277779 4.19792318
105.55083332 21.01277779 2.00762033
105.55111110 21.01277779 11.32259178
105.55138888 21.01277779 9.86162567
105.55166666 21.01277779 3.44071126
105.55194443 21.01277779 3.51806068
105.55222221 21.01277779 6.23460007
105.55249999 21.01277779 2.44222498
105.55277777 21.01277779 0.24608898
105.55305554 21.01277779 0.47909781
105.55333332 21.01277779 0.66406256
105.55361110 21.01277779 1.41044509
105.55388888 21.01277779 0.77325314
105.55416666 21.01277779 1.76937437
105.55444443 21.01277779 0.81410027
105.55472221 21.01277779 0.86081797
105.55499999 21.01277779 0.88837028
105.55527777 21.01277779 5.74508762
105.55555554 21.01277779 8.87084389
105.55583332 21.01277779 4.92852211
105.55611110 21.01277779 1.37837601
105.55638888 21.01277779 1.20949352
105.55666666 21.01277779 6.53810215
105.55694443 21.01277779 8.37173080
105.55722221 21.01277779 0.59371901
105.55749999 21.01277779 8.77372742
105.55777777 21.01277779 9.22045517
105.55805554 21.01277779 7.37975121
105.55833332 21.01277779 8.47567463
105.55861110 21.01277779 5.05560732
105.55888888 21.01277779 0.42060956
105.55916666 21.01277779 1.30688655
105.55944443 21.01277779 1.30834103
105.55972221 21.01277779 0.45357087
105.55999999 21.01277779 0.43436226
105.56027777 21.01277779 0.77400392
105.56055554 21.01277779 1.09144616
105.56083332 21.01277779 0.44029212
105.56111110 21.01277779 0.53289735
105.56138888 21.01277779 0.59411430
105.56166666 21.01277779 0.36098683
105.56194443 21.01277779 0.31729746
105.56222221 21.01277779 1.08328581
105.56249999 21.01277779 1.14780438
105.56277777 21.01277779 0.74634516
105.56305554 21.01277779 0.95255238
105.56333332 21.01277779 1.39082110
105.56361110 21.01277779 1.36381316
105.56388888 21.01277779 1.04165053
105.56416666 21.01277779 0.10716281
105.56444443 21.01277779 1.64741063
105.56472221 21.01277779 1.88853896
105.56499999 21.01277779 0.79462802
105.56527777 21.01277779 0.79970205
105.56555554 21.01277779 1.42828345
105.56583332 21.01277779 2.13355303
105.56611110 21.01277779 1.63898611
105.56638888 21.01277779 0.62261933
105.56666666 21.01277779 0.42192385
105.56694443 21.01277779 0.21949488
105.56722221 21.01277779 0.63569248
105.56749999 21.01277779 0.56410205
105.56777777 21.01277779 0.46298456
105.56805554 21.01277779 0.09979821
105.56833332 21.01277779 0.35040778
105.56861110 21.01277779 0.41449243
105.56888888 21.01277779 0.36805111
105.56916666 21.01277779 0.24062990
105.56944443 21.01277779 0.08865865
105.56972221 21.01277779 0.44710952
105.56999999 21.01277779 0.71235967
105.57027777 21.01277779 0.18245971
105.57055554 21.01277779 0.16525276
105.57083332 21.01277779 1.65460002
105.57111110 21.01277779 0.20163116
105.50472221 21.01250001 1.13345015
105.50499999 21.01250001 2.05630541
105.50527777 21.01250001 1.18457115
105.50555554 21.01250001 0.50261497
105.50583332 21.01250001 0.92396754
105.50611110 21.01250001 1.23879004
105.50638888 21.01250001 1.37510657
105.50666666 21.01250001 2.91176200
105.50694443 21.01250001 1.83519053
105.50722221 21.01250001 2.34842086
105.50749999 21.01250001 1.29142249
105.50777777 21.01250001 2.83810234
105.50805554 21.01250001 1.47655427
105.50833332 21.01250001 2.88396430
105.50861110 21.01250001 4.78971386
105.50888888 21.01250001 2.28605914
105.50916666 21.01250001 3.39744139
105.50944443 21.01250001 2.09879541
105.50972221 21.01250001 1.30036056
105.50999999 21.01250001 0.57831049
105.51027777 21.01250001 5.87571335
105.51055554 21.01250001 9.64716244
105.51083332 21.01250001 5.41987228
105.51111110 21.01250001 5.14979649
105.51138888 21.01250001 0.54195571
105.51166666 21.01250001 5.23150826
105.51194443 21.01250001 3.97526622
105.51222221 21.01250001 3.48227501
105.51249999 21.01250001 7.69716454
105.51277777 21.01250001 7.87785292
105.51305554 21.01250001 3.35634398
105.51333332 21.01250001 2.66114306
105.51361110 21.01250001 4.10727453
105.51388888 21.01250001 4.21674824
105.51416666 21.01250001 2.65134764
105.51444443 21.01250001 3.19771385
105.51472221 21.01250001 3.94316053
105.51499999 21.01250001 4.47939682
105.51527777 21.01250001 5.51462889
105.51555554 21.01250001 3.03117061
105.51583332 21.01250001 1.40766609
105.51611110 21.01250001 0.99167764
105.51638888 21.01250001 3.39046550
105.51666666 21.01250001 2.83656931
105.51694443 21.01250001 2.41777539
105.51722221 21.01250001 5.52166367
105.51749999 21.01250001 2.18802452
105.51777777 21.01250001 2.28744364
105.51805554 21.01250001 1.93627763
105.51833332 21.01250001 2.84313035
105.51861110 21.01250001 1.80284262
105.51888888 21.01250001 0.29610527
105.51916666 21.01250001 1.53524387
105.51944443 21.01250001 1.54252088
105.51972221 21.01250001 3.10449338
105.51999999 21.01250001 5.07996702
105.52027777 21.01250001 3.61695385
105.52055554 21.01250001 2.84740472
105.52083332 21.01250001 1.01732790
105.52111110 21.01250001 2.12587571
105.52138888 21.01250001 2.73671126
105.52166666 21.01250001 5.45806932
105.52194443 21.01250001 6.62584257
105.52222221 21.01250001 5.06295061
105.52249999 21.01250001 2.35436368
105.52277777 21.01250001 1.28396738
105.52305554 21.01250001 3.28039098
105.52333332 21.01250001 0.45688590
105.52361110 21.01250001 1.55848420
105.52388888 21.01250001 0.75316924
105.52416666 21.01250001 0.84951228
105.52444443 21.01250001 1.16490579
105.52472221 21.01250001 6.95330238
105.52499999 21.01250001 8.43068981
105.52527777 21.01250001 6.87771559
105.52555554 21.01250001 6.23435307
105.52583332 21.01250001 5.98845911
105.52611110 21.01250001 2.37493443
105.52638888 21.01250001 2.60611129
105.52666666 21.01250001 1.85016358
105.52694443 21.01250001 1.80405533
105.52722221 21.01250001 1.44455123
105.52749999 21.01250001 0.62176967
105.52777777 21.01250001 0.73868006
105.52805554 21.01250001 0.63839763
105.52833332 21.01250001 1.46742892
