105.55138888 20.98777779 175.10894775
105.55166666 20.98777779 176.62611389
105.55194443 20.98777779 177.82508850
105.55222221 20.98777779 186.60079956
105.55249999 20.98777779 193.70199585
105.55277777 20.98777779 193.30560303
105.55305554 20.98777779 193.29400635
105.55333332 20.98777779 204.20669556
105.55361110 20.98777779 198.71430969
105.55388888 20.98777779 184.32234192
105.55416666 20.98777779 165.86532593
105.55444443 20.98777779 172.70896912
105.55472221 20.98777779 177.57298279
105.55499999 20.98777779 178.75817871
105.55527777 20.98777779 172.70495605
105.55555554 20.98777779 163.72813416
105.55583332 20.98777779 175.58666992
105.55611110 20.98777779 183.18112183
105.55638888 20.98777779 198.10284424
105.55666666 20.98777779 210.47372437
105.55694443 20.98777779 196.82829285
105.55722221 20.98777779 190.56030273
105.55749999 20.98777779 187.75144958
105.55777777 20.98777779 182.89190674
105.55805554 20.98777779 177.68821716
105.55833332 20.98777779 182.07054138
105.55861110 20.98777779 176.88615417
105.55888888 20.98777779 172.63415527
105.55916666 20.98777779 180.28826904
105.55944443 20.98777779 183.22210693
105.55972221 20.98777779 182.01963806
105.55999999 20.98777779 180.01078796
105.52222221 20.98750001 186.57360840
105.52249999 20.98750001 175.53924561
105.52277777 20.98750001 173.60023499
105.52305554 20.98750001 182.83226013
105.52333332 20.98750001 187.66749573
105.52361110 20.98750001 186.38122559
105.52388888 20.98750001 181.15765381
105.52416666 20.98750001 183.70059204
105.52444443 20.98750001 189.33981323
105.52472221 20.98750001 190.30378723
105.52499999 20.98750001 186.75398254
105.52527777 20.98750001 182.32647705
105.52555554 20.98750001 179.63958740
105.52583332 20.98750001 174.83049011
105.52611110 20.98750001 175.45867920
105.52638888 20.98750001 183.27227783
105.52666666 20.98750001 187.79277039
105.52694443 20.98750001 181.22648621
105.52722221 20.98750001 176.00927734
105.52749999 20.98750001 177.47224426
105.52777777 20.98750001 177.23330688
105.52805554 20.98750001 179.57881165
105.52833332 20.98750001 182.50579834
105.52861110 20.98750001 178.01414490
105.52888888 20.98750001 177.21548462
105.52916666 20.98750001 178.02368164
105.52944443 20.98750001 178.29092407
105.52972221 20.98750001 179.76930237
105.52999999 20.98750001 180.29934692
105.53027777 20.98750001 180.05111694
105.53055554 20.98750001 179.77723694
105.53083332 20.98750001 180.42095947
105.53111110 20.98750001 179.37821960
105.53138888 20.98750001 180.62843323
105.53166666 20.98750001 181.79010010
105.53194443 20.98750001 179.68782043
105.53222221 20.98750001 178.45994568
105.53249999 20.98750001 180.45700073
105.53277777 20.98750001 183.83361816
105.53305554 20.98750001 181.15623474
105.53333332 20.98750001 179.42332458
105.53361110 20.98750001 180.11924744
105.53388888 20.98750001 181.19598389
105.53416666 20.98750001 173.91160583
105.53444443 20.98750001 164.64485168
105.53472221 20.98750001 165.92477417
105.53499999 20.98750001 171.79295349
105.53527777 20.98750001 176.86015320
105.53555554 20.98750001 170.78060913
105.53583332 20.98750001 173.52137756
105.53611110 20.98750001 182.67097473
105.53638888 20.98750001 190.32354736
105.53666666 20.98750001 188.59449768
105.53694443 20.98750001 181.34732056
105.53722221 20.98750001 188.32177734
105.53749999 20.98750001 184.38169861
105.53777777 20.98750001 184.31619263
105.53805554 20.98750001 188.74664307
105.53833332 20.98750001 189.45747375
105.53861110 20.98750001 181.83944702
105.53888888 20.98750001 169.53466797
105.53916666 20.98750001 171.74014282
105.53944443 20.98750001 181.12910461
105.53972221 20.98750001 191.62145996
105.53999999 20.98750001 182.43733215
105.54027777 20.98750001 180.83120728
105.54055554 20.98750001 184.79776001
105.54083332 20.98750001 178.57315063
105.54111110 20.98750001 175.08004761
105.54138888 20.98750001 169.02441406
105.54166666 20.98750001 176.47848511
105.54194443 20.98750001 174.13880920
105.54222221 20.98750001 159.87188721
105.54249999 20.98750001 169.85681152
105.54277777 20.98750001 179.17843628
105.54305554 20.98750001 173.18347168
105.54333332 20.98750001 172.65376282
105.54361110 20.98750001 173.33139038
105.54388888 20.98750001 162.82980347
105.54416666 20.98750001 167.64492798
105.54444443 20.98750001 180.44110107
105.54472221 20.98750001 181.62261963
105.54499999 20.98750001 180.62907410
105.54527777 20.98750001 180.96347046
105.54555554 20.98750001 181.69340515
105.54583332 20.98750001 179.33544922
105.54611110 20.98750001 179.24859619
105.54638888 20.98750001 179.77514648
105.54666666 20.98750001 180.91716003
105.54694443 20.98750001 181.06562805
105.54722221 20.98750001 180.11808777
105.54749999 20.98750001 182.35345459
105.54777777 20.98750001 184.62475586
105.54805554 20.98750001 183.85774231
105.54833332 20.98750001 185.75444031
105.54861110 20.98750001 186.06362915
105.54888888 20.98750001 187.85826111
105.54916666 20.98750001 185.85014343
105.54944443 20.98750001 186.30805969
105.54972221 20.98750001 186.21061707
105.54999999 20.98750001 186.14390564
105.55027777 20.98750001 188.07170105
105.55055554 20.98750001 196.90452576
105.55083332 20.98750001 201.26528931
105.55111110 20.98750001 172.23753357
105.55138888 20.98750001 159.98234558
105.55166666 20.98750001 175.56930542
105.55194443 20.98750001 182.76435852
105.55222221 20.98750001 191.42274475
105.55249999 20.98750001 190.77178955
105.55277777 20.98750001 177.35139465
105.55305554 20.98750001 189.15545654
105.55333332 20.98750001 184.40693665
105.55361110 20.98750001 165.12506104
105.55388888 20.98750001 163.20666504
105.55416666 20.98750001 172.96243286
105.55444443 20.98750001 182.47981262
105.55472221 20.98750001 175.12590027
105.55499999 20.98750001 177.14750671
105.55527777 20.98750001 175.24798584
105.55555554 20.98750001 177.97090149
105.55583332 20.98750001 192.18055725
105.55611110 20.98750001 200.16864014
105.55638888 20.98750001 208.46441650
105.55666666 20.98750001 201.82820129
105.55694443 20.98750001 191.29280090
105.55722221 20.98750001 189.33245850
105.55749999 20.98750001 188.24559021
105.55777777 20.98750001 176.03523254
105.55805554 20.98750001 177.62310791
105.55833332 20.98750001 177.15402222
105.55861110 20.98750001 174.65380859
105.55888888 20.98750001 176.54205322
105.55916666 20.98750001 177.93057251
105.55944443 20.98750001 181.09664917
105.55972221 20.98750001 179.23370361
105.52277777 20.98722223 176.64248657
105.52305554 20.98722223 187.42347717
105.52333332 20.98722223 190.81042480
105.52361110 20.98722223 188.35137939
105.52388888 20.98722223 190.23937988
105.52416666 20.98722223 199.83108521
105.52444443 20.98722223 199.59111023
105.52472221 20.98722223 189.53031921
105.52499999 20.98722223 185.75212097
105.52527777 20.98722223 176.74942017
105.52555554 20.98722223 179.37084961
105.52583332 20.98722223 178.72230530
105.52611110 20.98722223 181.82496643
105.52638888 20.98722223 186.65299988
105.52666666 20.98722223 179.07128906
105.52694443 20.98722223 170.29063416
105.52722221 20.98722223 177.30563354
105.52749999 20.98722223 176.17068481
105.52777777 20.98722223 177.60627747
105.52805554 20.98722223 183.90727234
105.52833332 20.98722223 181.57540894
105.52861110 20.98722223 176.55160522
105.52888888 20.98722223 178.34883118
105.52916666 20.98722223 177.84980774
105.52944443 20.98722223 180.22830200
105.52972221 20.98722223 180.87719727
105.52999999 20.98722223 179.62271118
105.53027777 20.98722223 179.92718506
105.53055554 20.98722223 181.01069641
105.53083332 20.98722223 179.54052734
105.53111110 20.98722223 180.06848145
105.53138888 20.98722223 181.47102356
105.53166666 20.98722223 180.20552063
105.53194443 20.98722223 178.37080383
105.53222221 20.98722223 182.02362061
105.53249999 20.98722223 187.70693970
105.53277777 20.98722223 185.91195679
105.53305554 20.98722223 180.12126160
105.53333332 20.98722223 176.82112122
105.53361110 20.98722223 175.99276733
105.53388888 20.98722223 181.44877625
105.53416666 20.98722223 176.03804016
105.53444443 20.98722223 173.14958191
105.53472221 20.98722223 174.42308044
105.53499999 20.98722223 174.94978333
105.53527777 20.98722223 178.35656738
105.53555554 20.98722223 179.68812561
105.53583332 20.98722223 181.88124084
105.53611110 20.98722223 181.73434448
105.53638888 20.98722223 190.36152649
105.53666666 20.98722223 188.98899841
105.53694443 20.98722223 191.13385010
105.53722221 20.98722223 187.03596497
105.53749999 20.98722223 184.58520508
105.53777777 20.98722223 191.50503540
105.53805554 20.98722223 187.94641113
105.53833332 20.98722223 177.45242310
105.53861110 20.98722223 167.70109558
105.53888888 20.98722223 171.39450073
105.53916666 20.98722223 179.04121399
105.53944443 20.98722223 187.47853088
105.53972221 20.98722223 190.83184814
105.53999999 20.98722223 177.26042175
105.54027777 20.98722223 172.85902405
105.54055554 20.98722223 172.29304504
105.54083332 20.98722223 177.12428284
105.54111110 20.98722223 175.88885498
105.54138888 20.98722223 170.76072693
105.54166666 20.98722223 174.65663147
105.54194443 20.98722223 153.91400146
105.54222221 20.98722223 151.53103638
105.54249999 20.98722223 169.67654419
105.54277777 20.98722223 174.33908081
105.54305554 20.98722223 174.29792786
105.54333332 20.98722223 171.81504822
105.54361110 20.98722223 162.46908569
105.54388888 20.98722223 158.70498657
105.54416666 20.98722223 174.56947327
105.54444443 20.98722223 181.41581726
105.54472221 20.98722223 180.22816467
105.54499999 20.98722223 180.23265076
105.54527777 20.98722223 180.58117676
105.54555554 20.98722223 178.51527405
105.54583332 20.98722223 178.42771912
105.54611110 20.98722223 179.18203735
105.54638888 20.98722223 179.47805786
105.54666666 20.98722223 179.61215210
105.54694443 20.98722223 180.67097473
105.54722221 20.98722223 181.15547180
105.54749999 20.98722223 185.13639832
105.54777777 20.98722223 183.29504395
105.54805554 20.98722223 187.59614563
105.54833332 20.98722223 190.80583191
105.54861110 20.98722223 187.82167053
105.54888888 20.98722223 185.75175476
105.54916666 20.98722223 182.98979187
105.54944443 20.98722223 181.66046143
105.54972221 20.98722223 181.61932373
105.54999999 20.98722223 185.29141235
105.55027777 20.98722223 187.33108521
105.55055554 20.98722223 185.07844543
105.55083332 20.98722223 174.87585449
105.55111110 20.98722223 160.27932739
105.55138888 20.98722223 177.56784058
105.55166666 20.98722223 180.15995789
105.55194443 20.98722223 183.41699219
105.55222221 20.98722223 187.42280579
105.55249999 20.98722223 177.08459473
105.55277777 20.98722223 172.17617798
105.55305554 20.98722223 178.50558472
105.55333332 20.98722223 166.80084229
105.55361110 20.98722223 165.14157104
105.55388888 20.98722223 173.28497314
105.55416666 20.98722223 179.30520630
105.55444443 20.98722223 175.41377258
105.55472221 20.98722223 174.49049377
105.55499999 20.98722223 177.40504456
105.55527777 20.98722223 180.33470154
105.55555554 20.98722223 193.88375854
105.55583332 20.98722223 202.89297485
105.55611110 20.98722223 201.98731995
105.55638888 20.98722223 204.84756470
105.55666666 20.98722223 199.23002625
105.55694443 20.98722223 189.51414490
105.55722221 20.98722223 185.69473267
105.55749999 20.98722223 179.26094055
105.55777777 20.98722223 172.52432251
105.55805554 20.98722223 178.54841614
105.55833332 20.98722223 173.25842285
105.55861110 20.98722223 171.03631592
105.55888888 20.98722223 172.12406921
105.55916666 20.98722223 175.57260132
105.55944443 20.98722223 177.67623901
105.52305554 20.98694446 185.66076660
105.52333332 20.98694446 182.14950562
105.52361110 20.98694446 183.60066223
105.52388888 20.98694446 191.28062439
105.52416666 20.98694446 192.74353027
105.52444443 20.98694446 178.83444214
105.52472221 20.98694446 176.97071838
105.52499999 20.98694446 171.18211365
105.52527777 20.98694446 164.09396362
105.52555554 20.98694446 177.93119812
105.52583332 20.98694446 178.74336243
105.52611110 20.98694446 181.42520142
105.52638888 20.98694446 183.06179810
105.52666666 20.98694446 175.90539551
105.52694443 20.98694446 174.40667725
105.52722221 20.98694446 175.45094299
105.52749999 20.98694446 175.83143616
105.52777777 20.98694446 184.03106689
105.52805554 20.98694446 186.20664978
105.52833332 20.98694446 178.02665710
105.52861110 20.98694446 173.71170044
105.52888888 20.98694446 175.53628540
105.52916666 20.98694446 180.37712097
105.52944443 20.98694446 180.79139709
105.52972221 20.98694446 179.13912964
105.52999999 20.98694446 180.35516357
105.53027777 20.98694446 180.00009155
105.53055554 20.98694446 178.45640564
105.53083332 20.98694446 178.10035706
105.53111110 20.98694446 180.08607483
105.53138888 20.98694446 179.71360779
105.53166666 20.98694446 177.78791809
105.53194443 20.98694446 178.29725647
105.53222221 20.98694446 183.15313721
105.53249999 20.98694446 181.85081482
105.53277777 20.98694446 174.51144409
105.53305554 20.98694446 174.54029846
105.53333332 20.98694446 174.09414673
105.53361110 20.98694446 180.28442383
105.53388888 20.98694446 186.98468018
105.53416666 20.98694446 184.86291504
105.53444443 20.98694446 180.88914490
105.53472221 20.98694446 181.84928894
105.53499999 20.98694446 182.98335266
105.53527777 20.98694446 184.15968323
105.53555554 20.98694446 186.25328064
105.53583332 20.98694446 184.86367798
105.53611110 20.98694446 186.55151367
105.53638888 20.98694446 189.63531494
105.53666666 20.98694446 185.14857483
105.53694443 20.98694446 185.86534119
105.53722221 20.98694446 179.79299927
105.53749999 20.98694446 177.84799194
105.53777777 20.98694446 175.65570068
105.53805554 20.98694446 176.60134888
105.53833332 20.98694446 175.56777954
105.53861110 20.98694446 173.79827881
105.53888888 20.98694446 177.10855103
105.53916666 20.98694446 174.10760498
105.53944443 20.98694446 186.29814148
105.53972221 20.98694446 181.69384766
105.53999999 20.98694446 158.77478027
105.54027777 20.98694446 154.24739075
105.54055554 20.98694446 165.62460327
105.54083332 20.98694446 172.43588257
105.54111110 20.98694446 164.33665466
105.54138888 20.98694446 159.52641296
105.54166666 20.98694446 156.61427307
105.54194443 20.98694446 150.33052063
105.54222221 20.98694446 166.47537231
105.54249999 20.98694446 178.64636230
105.54277777 20.98694446 181.82437134
105.54305554 20.98694446 177.22143555
105.54333332 20.98694446 167.86764526
105.54361110 20.98694446 170.03021240
105.54388888 20.98694446 170.61437988
105.54416666 20.98694446 179.88365173
105.54444443 20.98694446 181.34855652
105.54472221 20.98694446 181.41787720
105.54499999 20.98694446 180.54025269
105.54527777 20.98694446 179.82873535
105.54555554 20.98694446 177.37342834
105.54583332 20.98694446 178.90112305
105.54611110 20.98694446 179.71336365
105.54638888 20.98694446 179.41464233
105.54666666 20.98694446 183.50877380
105.54694443 20.98694446 185.45936584
105.54722221 20.98694446 186.07923889
105.54749999 20.98694446 187.10182190
105.54777777 20.98694446 187.35227966
105.54805554 20.98694446 193.13951111
105.54833332 20.98694446 189.15783691
105.54861110 20.98694446 182.18614197
105.54888888 20.98694446 178.14404297
105.54916666 20.98694446 175.02517700
105.54944443 20.98694446 176.98803711
105.54972221 20.98694446 182.06445312
105.54999999 20.98694446 175.65718079
105.55027777 20.98694446 175.54119873
105.55055554 20.98694446 176.95550537
105.55083332 20.98694446 177.47016907
105.55111110 20.98694446 178.18901062
105.55138888 20.98694446 179.65261841
105.55166666 20.98694446 179.34228516
105.55194443 20.98694446 181.40481567
105.55222221 20.98694446 181.62606812
105.55249999 20.98694446 177.35224915
105.55277777 20.98694446 179.89894104
105.55305554 20.98694446 180.90774536
105.55333332 20.98694446 177.68232727
105.55361110 20.98694446 178.07246399
105.55388888 20.98694446 177.99845886
105.55416666 20.98694446 176.67234802
105.55444443 20.98694446 178.17495728
105.55472221 20.98694446 177.17779541
105.55499999 20.98694446 179.93681335
105.55527777 20.98694446 188.59963989
105.55555554 20.98694446 198.97961426
105.55583332 20.98694446 197.00103760
105.55611110 20.98694446 192.53112793
105.55638888 20.98694446 192.00654602
105.55666666 20.98694446 185.69982910
105.55694443 20.98694446 171.84729004
105.55722221 20.98694446 173.27874756
105.55749999 20.98694446 172.79808044
105.55777777 20.98694446 175.67858887
105.55805554 20.98694446 174.38806152
105.55833332 20.98694446 174.45155334
105.55861110 20.98694446 171.56582642
105.55888888 20.98694446 169.11897278
105.52361110 20.98666668 183.12344360
105.52388888 20.98666668 184.42967224
105.52416666 20.98666668 174.15249634
105.52444443 20.98666668 159.70910645
105.52472221 20.98666668 167.08662415
105.52499999 20.98666668 168.10197449
105.52527777 20.98666668 176.28419495
105.52555554 20.98666668 181.14694214
105.52583332 20.98666668 179.05822754
105.52611110 20.98666668 184.57174683
105.52638888 20.98666668 185.94281006
105.52666666 20.98666668 172.16763306
105.52694443 20.98666668 168.25852966
105.52722221 20.98666668 173.56079102
105.52749999 20.98666668 184.26147461
105.52777777 20.98666668 187.37191772
105.52805554 20.98666668 182.41796875
105.52833332 20.98666668 174.47978210
105.52861110 20.98666668 176.44166565
105.52888888 20.98666668 179.23313904
105.52916666 20.98666668 180.16711426
105.52944443 20.98666668 178.92413330
105.52972221 20.98666668 180.08834839
105.52999999 20.98666668 179.33007812
105.53027777 20.98666668 177.77230835
105.53055554 20.98666668 179.78196716
105.53083332 20.98666668 179.99723816
105.53111110 20.98666668 179.59469604
105.53138888 20.98666668 178.37301636
105.53166666 20.98666668 178.56706238
105.53194443 20.98666668 180.08694458
105.53222221 20.98666668 179.89941406
105.53249999 20.98666668 171.50726318
105.53277777 20.98666668 171.88366699
105.53305554 20.98666668 181.39991760
105.53333332 20.98666668 183.67669678
105.53361110 20.98666668 189.47857666
105.53388888 20.98666668 189.75086975
105.53416666 20.98666668 185.08393860
105.53444443 20.98666668 189.01081848
105.53472221 20.98666668 190.30018616
105.53499999 20.98666668 186.74540710
105.53527777 20.98666668 186.98860168
105.53555554 20.98666668 188.17500305
105.53583332 20.98666668 188.11030579
105.53611110 20.98666668 185.89843750
105.53638888 20.98666668 181.85018921
105.53666666 20.98666668 182.93392944
105.53694443 20.98666668 178.17988586
105.53722221 20.98666668 173.90077209
105.53749999 20.98666668 171.85453796
105.53777777 20.98666668 169.66929626
105.53805554 20.98666668 174.80650330
105.53833332 20.98666668 167.13101196
105.53861110 20.98666668 161.40109253
105.53888888 20.98666668 163.25976562
105.53916666 20.98666668 174.23490906
105.53944443 20.98666668 180.78617859
105.53972221 20.98666668 161.39140320
105.53999999 20.98666668 145.80145264
105.54027777 20.98666668 159.51054382
105.54055554 20.98666668 169.58445740
105.54083332 20.98666668 164.89138794
105.54111110 20.98666668 153.91212463
105.54138888 20.98666668 157.04078674
105.54166666 20.98666668 164.36953735
105.54194443 20.98666668 171.64843750
105.54222221 20.98666668 182.10533142
105.54249999 20.98666668 184.00590515
105.54277777 20.98666668 183.04632568
105.54305554 20.98666668 176.99250793
105.54333332 20.98666668 178.81483459
105.54361110 20.98666668 177.61692810
105.54388888 20.98666668 174.19360352
105.54416666 20.98666668 183.90110779
105.54444443 20.98666668 184.64283752
105.54472221 20.98666668 182.93324280
105.54499999 20.98666668 182.00346375
105.54527777 20.98666668 178.69831848
105.54555554 20.98666668 176.55242920
105.54583332 20.98666668 179.16293335
105.54611110 20.98666668 182.67857361
105.54638888 20.98666668 185.85435486
105.54666666 20.98666668 189.31387329
105.54694443 20.98666668 187.28068542
105.54722221 20.98666668 190.16468811
105.54749999 20.98666668 189.83486938
105.54777777 20.98666668 189.43450928
105.54805554 20.98666668 186.59869385
105.54833332 20.98666668 180.75880432
105.54861110 20.98666668 178.48951721
105.54888888 20.98666668 177.92274475
105.54916666 20.98666668 180.84355164
105.54944443 20.98666668 189.22039795
105.54972221 20.98666668 183.52653503
105.54999999 20.98666668 177.79238892
105.55027777 20.98666668 185.55424500
105.55055554 20.98666668 183.84346008
105.55083332 20.98666668 180.48062134
105.55111110 20.98666668 180.51046753
105.55138888 20.98666668 180.87928772
105.55166666 20.98666668 181.56604004
105.55194443 20.98666668 180.99617004
105.55222221 20.98666668 180.82772827
105.55249999 20.98666668 181.18138123
105.55277777 20.98666668 181.30294800
105.55305554 20.98666668 180.97312927
105.55333332 20.98666668 180.88024902
105.55361110 20.98666668 180.16796875
105.55388888 20.98666668 178.06411743
105.55416666 20.98666668 180.59921265
105.55444443 20.98666668 181.75305176
105.55472221 20.98666668 177.60807800
105.55499999 20.98666668 184.87628174
105.55527777 20.98666668 192.15019226
105.55555554 20.98666668 191.73706055
105.55583332 20.98666668 180.28781128
105.55611110 20.98666668 176.61709595
105.55638888 20.98666668 180.73149109
105.55666666 20.98666668 174.81109619
105.55694443 20.98666668 166.09561157
105.55722221 20.98666668 175.77731323
105.55749999 20.98666668 178.49444580
105.55777777 20.98666668 177.91946411
105.55805554 20.98666668 174.97589111
105.55833332 20.98666668 173.73231506
105.55861110 20.98666668 168.75894165
105.52416666 20.98638890 162.07226562
105.52444443 20.98638890 165.19325256
105.52472221 20.98638890 183.14736938
105.52499999 20.98638890 182.53147888
105.52527777 20.98638890 184.32728577
105.52555554 20.98638890 181.96499634
105.52583332 20.98638890 176.87147522
105.52611110 20.98638890 181.05957031
105.52638888 20.98638890 182.97883606
105.52666666 20.98638890 170.86811829
105.52694443 20.98638890 170.23144531
105.52722221 20.98638890 180.74031067
105.52749999 20.98638890 186.88098145
105.52777777 20.98638890 187.43998718
105.52805554 20.98638890 182.71247864
105.52833332 20.98638890 174.68309021
105.52861110 20.98638890 170.55491638
105.52888888 20.98638890 175.53881836
105.52916666 20.98638890 178.28672791
105.52944443 20.98638890 179.46607971
105.52972221 20.98638890 179.30972290
105.52999999 20.98638890 179.92930603
105.53027777 20.98638890 181.34542847
105.53055554 20.98638890 182.67065430
105.53083332 20.98638890 180.34526062
105.53111110 20.98638890 179.50646973
105.53138888 20.98638890 180.40373230
105.53166666 20.98638890 180.25622559
105.53194443 20.98638890 179.16433716
105.53222221 20.98638890 173.75814819
105.53249999 20.98638890 170.50930786
105.53277777 20.98638890 184.83949280
105.53305554 20.98638890 190.46481323
105.53333332 20.98638890 186.71124268
105.53361110 20.98638890 185.38990784
105.53388888 20.98638890 182.11647034
105.53416666 20.98638890 185.45567322
105.53444443 20.98638890 190.02397156
105.53472221 20.98638890 184.18045044
105.53499999 20.98638890 182.58377075
105.53527777 20.98638890 182.01852417
105.53555554 20.98638890 184.81976318
105.53583332 20.98638890 184.44731140
105.53611110 20.98638890 180.87507629
105.53638888 20.98638890 178.64247131
105.53666666 20.98638890 173.49012756
105.53694443 20.98638890 169.27128601
105.53722221 20.98638890 169.94395447
105.53749999 20.98638890 168.63128662
105.53777777 20.98638890 172.82929993
105.53805554 20.98638890 171.86036682
105.53833332 20.98638890 165.02593994
105.53861110 20.98638890 164.78961182
105.53888888 20.98638890 173.50473022
105.53916666 20.98638890 177.99612427
105.53944443 20.98638890 170.88899231
105.53972221 20.98638890 166.02693176
105.53999999 20.98638890 170.73991394
105.54027777 20.98638890 178.89396667
105.54055554 20.98638890 178.95491028
105.54083332 20.98638890 176.30249023
105.54111110 20.98638890 171.82711792
105.54138888 20.98638890 178.29676819
105.54166666 20.98638890 180.11062622
105.54194443 20.98638890 184.54541016
105.54222221 20.98638890 185.26910400
105.54249999 20.98638890 181.11528015
105.54277777 20.98638890 180.22587585
105.54305554 20.98638890 178.78611755
105.54333332 20.98638890 181.28776550
105.54361110 20.98638890 175.61593628
105.54388888 20.98638890 183.42088318
105.54416666 20.98638890 187.09445190
105.54444443 20.98638890 184.11766052
105.54472221 20.98638890 181.69004822
105.54499999 20.98638890 178.70277405
105.54527777 20.98638890 176.53427124
105.54555554 20.98638890 178.38981628
105.54583332 20.98638890 184.26295471
105.54611110 20.98638890 187.59370422
105.54638888 20.98638890 189.05735779
105.54666666 20.98638890 190.52134705
105.54694443 20.98638890 189.37426758
105.54722221 20.98638890 187.38957214
105.54749999 20.98638890 183.90774536
105.54777777 20.98638890 180.76025391
105.54805554 20.98638890 179.18127441
105.54833332 20.98638890 179.25343323
105.54861110 20.98638890 179.33457947
105.54888888 20.98638890 180.15353394
105.54916666 20.98638890 193.51367188
105.54944443 20.98638890 195.44639587
105.54972221 20.98638890 180.77799988
105.54999999 20.98638890 179.08972168
105.55027777 20.98638890 180.30128479
105.55055554 20.98638890 180.73083496
105.55083332 20.98638890 180.33918762
105.55111110 20.98638890 181.48954773
105.55138888 20.98638890 180.54049683
105.55166666 20.98638890 180.52040100
105.55194443 20.98638890 180.17622375
105.55222221 20.98638890 180.63311768
105.55249999 20.98638890 180.78289795
105.55277777 20.98638890 178.47109985
105.55305554 20.98638890 179.79788208
105.55333332 20.98638890 181.34747314
105.55361110 20.98638890 179.25918579
105.55388888 20.98638890 178.59805298
105.55416666 20.98638890 180.74743652
105.55444443 20.98638890 178.64151001
105.55472221 20.98638890 178.67576599
105.55499999 20.98638890 185.22850037
105.55527777 20.98638890 187.23796082
105.55555554 20.98638890 181.65238953
105.55583332 20.98638890 178.14259338
105.55611110 20.98638890 181.29077148
105.55638888 20.98638890 183.00910950
105.55666666 20.98638890 176.81402588
105.55694443 20.98638890 178.01109314
105.55722221 20.98638890 177.15112305
105.55749999 20.98638890 180.21290588
105.55777777 20.98638890 183.11585999
105.55805554 20.98638890 182.01098633
105.55833332 20.98638890 173.97006226
105.52444443 20.98611112 182.14041138
105.52472221 20.98611112 188.99844360
105.52499999 20.98611112 183.29338074
105.52527777 20.98611112 186.31974792
105.52555554 20.98611112 176.32913208
105.52583332 20.98611112 173.39028931
105.52611110 20.98611112 184.81222534
105.52638888 20.98611112 186.19642639
105.52666666 20.98611112 170.29307556
105.52694443 20.98611112 173.97534180
105.52722221 20.98611112 179.48063660
105.52749999 20.98611112 185.78996277
105.52777777 20.98611112 187.61856079
105.52805554 20.98611112 173.38333130
105.52833332 20.98611112 160.54164124
105.52861110 20.98611112 172.29208374
105.52888888 20.98611112 185.41642761
105.52916666 20.98611112 187.35000610
105.52944443 20.98611112 185.42799377
105.52972221 20.98611112 184.17953491
105.52999999 20.98611112 186.34822083
105.53027777 20.98611112 187.97982788
105.53055554 20.98611112 184.20626831
105.53083332 20.98611112 179.86369324
105.53111110 20.98611112 178.16184998
105.53138888 20.98611112 179.65264893
105.53166666 20.98611112 178.34097290
105.53194443 20.98611112 177.97866821
105.53222221 20.98611112 174.39218140
105.53249999 20.98611112 178.51420593
105.53277777 20.98611112 188.17671204
105.53305554 20.98611112 187.68243408
105.53333332 20.98611112 182.66287231
105.53361110 20.98611112 181.02537537
105.53388888 20.98611112 181.62272644
105.53416666 20.98611112 182.98580933
105.53444443 20.98611112 176.82978821
105.53472221 20.98611112 177.14038086
105.53499999 20.98611112 177.63302612
105.53527777 20.98611112 179.05113220
105.53555554 20.98611112 181.23847961
105.53583332 20.98611112 178.42042542
105.53611110 20.98611112 177.97436523
105.53638888 20.98611112 175.25709534
105.53666666 20.98611112 170.28201294
105.53694443 20.98611112 172.74897766
105.53722221 20.98611112 178.46342468
105.53749999 20.98611112 183.71217346
105.53777777 20.98611112 178.14585876
105.53805554 20.98611112 182.56942749
105.53833332 20.98611112 173.60112000
105.53861110 20.98611112 173.24214172
105.53888888 20.98611112 182.37623596
105.53916666 20.98611112 179.67973328
105.53944443 20.98611112 176.33489990
105.53972221 20.98611112 178.53288269
105.53999999 20.98611112 182.18504333
105.54027777 20.98611112 189.06607056
105.54055554 20.98611112 192.19886780
105.54083332 20.98611112 187.15476990
105.54111110 20.98611112 186.83924866
105.54138888 20.98611112 190.58555603
105.54166666 20.98611112 183.38003540
105.54194443 20.98611112 186.90959167
105.54222221 20.98611112 179.91593933
105.54249999 20.98611112 177.37199402
105.54277777 20.98611112 178.92028809
105.54305554 20.98611112 182.88288879
105.54333332 20.98611112 179.92402649
105.54361110 20.98611112 181.48851013
105.54388888 20.98611112 186.83134460
105.54416666 20.98611112 183.45729065
105.54444443 20.98611112 180.67015076
105.54472221 20.98611112 179.33753967
105.54499999 20.98611112 177.92169189
105.54527777 20.98611112 177.76953125
105.54555554 20.98611112 180.80818176
105.54583332 20.98611112 186.38526917
105.54611110 20.98611112 186.23294067
105.54638888 20.98611112 187.43769836
105.54666666 20.98611112 186.81199646
105.54694443 20.98611112 183.35020447
105.54722221 20.98611112 182.40892029
105.54749999 20.98611112 179.10408020
105.54777777 20.98611112 176.94584656
105.54805554 20.98611112 178.89807129
105.54833332 20.98611112 179.29510498
105.54861110 20.98611112 178.25671387
105.54888888 20.98611112 185.98580933
105.54916666 20.98611112 195.61412048
105.54944443 20.98611112 184.59414673
105.54972221 20.98611112 174.33023071
105.54999999 20.98611112 171.78611755
105.55027777 20.98611112 177.02430725
105.55055554 20.98611112 181.86799622
105.55083332 20.98611112 180.98049927
105.55111110 20.98611112 180.47628784
105.55138888 20.98611112 180.07113647
105.55166666 20.98611112 180.71528625
105.55194443 20.98611112 179.75205994
105.55222221 20.98611112 181.01077271
105.55249999 20.98611112 180.41264343
105.55277777 20.98611112 179.71989441
105.55305554 20.98611112 181.19151306
105.55333332 20.98611112 179.98088074
105.55361110 20.98611112 180.44111633
105.55388888 20.98611112 179.61633301
105.55416666 20.98611112 179.36244202
105.55444443 20.98611112 178.10906982
105.55472221 20.98611112 181.08865356
105.55499999 20.98611112 184.75999451
105.55527777 20.98611112 184.02578735
105.55555554 20.98611112 181.22729492
105.55583332 20.98611112 182.13665771
105.55611110 20.98611112 181.93440247
105.55638888 20.98611112 181.42303467
105.55666666 20.98611112 184.03561401
105.55694443 20.98611112 184.03535461
105.55722221 20.98611112 182.40509033
105.55749999 20.98611112 186.22688293
105.55777777 20.98611112 189.50184631
105.55805554 20.98611112 179.11405945
105.52499999 20.98583334 186.39151001
105.52527777 20.98583334 183.22676086
105.52555554 20.98583334 179.68367004
105.52583332 20.98583334 176.28005981
105.52611110 20.98583334 183.21620178
105.52638888 20.98583334 178.47308350
105.52666666 20.98583334 172.08128357
105.52694443 20.98583334 173.18360901
105.52722221 20.98583334 175.99739075
105.52749999 20.98583334 185.07656860
105.52777777 20.98583334 179.18705750
105.52805554 20.98583334 166.07701111
105.52833332 20.98583334 177.97831726
105.52861110 20.98583334 201.14862061
105.52888888 20.98583334 205.03453064
105.52916666 20.98583334 197.18185425
105.52944443 20.98583334 191.56874084
105.52972221 20.98583334 192.71452332
105.52999999 20.98583334 196.00181580
105.53027777 20.98583334 191.90380859
105.53055554 20.98583334 179.83999634
105.53083332 20.98583334 177.67413330
105.53111110 20.98583334 177.31797791
105.53138888 20.98583334 179.80763245
105.53166666 20.98583334 178.68121338
105.53194443 20.98583334 179.47401428
105.53222221 20.98583334 175.59294128
105.53249999 20.98583334 178.11857605
105.53277777 20.98583334 187.15748596
105.53305554 20.98583334 187.81401062
105.53333332 20.98583334 183.17767334
105.53361110 20.98583334 179.90502930
105.53388888 20.98583334 177.66780090
105.53416666 20.98583334 175.91033936
105.53444443 20.98583334 178.85095215
105.53472221 20.98583334 178.99685669
105.53499999 20.98583334 179.26329041
105.53527777 20.98583334 184.01878357
105.53555554 20.98583334 176.53421021
105.53583332 20.98583334 175.61645508
105.53611110 20.98583334 179.87297058
105.53638888 20.98583334 180.53230286
105.53666666 20.98583334 174.18682861
105.53694443 20.98583334 176.93856812
105.53722221 20.98583334 187.64830017
105.53749999 20.98583334 187.73425293
105.53777777 20.98583334 192.72474670
105.53805554 20.98583334 188.17510986
105.53833332 20.98583334 172.24905396
105.53861110 20.98583334 184.17019653
105.53888888 20.98583334 188.24719238
105.53916666 20.98583334 181.03363037
105.53944443 20.98583334 183.18545532
105.53972221 20.98583334 187.42364502
105.53999999 20.98583334 190.17631531
105.54027777 20.98583334 193.69371033
105.54055554 20.98583334 192.39855957
105.54083332 20.98583334 192.34333801
105.54111110 20.98583334 194.86270142
105.54138888 20.98583334 179.61746216
105.54166666 20.98583334 179.26174927
105.54194443 20.98583334 185.07940674
105.54222221 20.98583334 178.25306702
105.54249999 20.98583334 180.87123108
105.54277777 20.98583334 182.63671875
105.54305554 20.98583334 183.70745850
105.54333332 20.98583334 178.79597473
105.54361110 20.98583334 183.93716431
105.54388888 20.98583334 184.52099609
105.54416666 20.98583334 181.52221680
105.54444443 20.98583334 179.96400452
105.54472221 20.98583334 179.78459167
105.54499999 20.98583334 176.80049133
105.54527777 20.98583334 177.36590576
105.54555554 20.98583334 179.58984375
105.54583332 20.98583334 183.80760193
105.54611110 20.98583334 184.69869995
105.54638888 20.98583334 183.88597107
105.54666666 20.98583334 186.00553894
105.54694443 20.98583334 190.96556091
105.54722221 20.98583334 187.44210815
105.54749999 20.98583334 182.29301453
105.54777777 20.98583334 180.71981812
105.54805554 20.98583334 183.98835754
105.54833332 20.98583334 182.44906616
105.54861110 20.98583334 179.81408691
105.54888888 20.98583334 194.81454468
105.54916666 20.98583334 197.00846863
105.54944443 20.98583334 187.03871155
105.54972221 20.98583334 178.77336121
105.54999999 20.98583334 173.92742920
105.55027777 20.98583334 177.76605225
105.55055554 20.98583334 181.46345520
105.55083332 20.98583334 181.44883728
105.55111110 20.98583334 181.08326721
105.55138888 20.98583334 181.39379883
105.55166666 20.98583334 180.76768494
105.55194443 20.98583334 180.55619812
105.55222221 20.98583334 181.02508545
105.55249999 20.98583334 180.29504395
105.55277777 20.98583334 180.45274353
105.55305554 20.98583334 180.36921692
105.55333332 20.98583334 179.71618652
105.55361110 20.98583334 180.53639221
105.55388888 20.98583334 179.19630432
105.55416666 20.98583334 178.77671814
105.55444443 20.98583334 178.25070190
105.55472221 20.98583334 183.43046570
105.55499999 20.98583334 185.30895996
105.55527777 20.98583334 186.41580200
105.55555554 20.98583334 186.50436401
105.55583332 20.98583334 186.27413940
105.55611110 20.98583334 184.63806152
105.55638888 20.98583334 187.05892944
105.55666666 20.98583334 191.40591431
105.55694443 20.98583334 185.25488281
105.55722221 20.98583334 177.74845886
105.55749999 20.98583334 185.89257812
105.55777777 20.98583334 183.61512756
105.52527777 20.98555557 185.96493530
105.52555554 20.98555557 180.64472961
105.52583332 20.98555557 172.90324402
105.52611110 20.98555557 182.51754761
105.52638888 20.98555557 178.24252319
105.52666666 20.98555557 174.46849060
105.52694443 20.98555557 174.14288330
105.52722221 20.98555557 176.15902710
105.52749999 20.98555557 179.21166992
105.52777777 20.98555557 176.73896790
105.52805554 20.98555557 186.69517517
105.52833332 20.98555557 207.71852112
105.52861110 20.98555557 212.78210449
105.52888888 20.98555557 195.27334595
105.52916666 20.98555557 187.11477661
105.52944443 20.98555557 187.57881165
105.52972221 20.98555557 188.47662354
105.52999999 20.98555557 191.64259338
105.53027777 20.98555557 181.19494629
105.53055554 20.98555557 170.37277222
105.53083332 20.98555557 172.27943420
105.53111110 20.98555557 174.81987000
105.53138888 20.98555557 178.74176025
105.53166666 20.98555557 178.49708557
105.53194443 20.98555557 179.04687500
105.53222221 20.98555557 178.02249146
105.53249999 20.98555557 180.05993652
105.53277777 20.98555557 180.91636658
105.53305554 20.98555557 180.95820618
105.53333332 20.98555557 178.61116028
105.53361110 20.98555557 177.07183838
105.53388888 20.98555557 179.32901001
105.53416666 20.98555557 181.03092957
105.53444443 20.98555557 177.68498230
105.53472221 20.98555557 172.52438354
105.53499999 20.98555557 177.79312134
105.53527777 20.98555557 176.56005859
105.53555554 20.98555557 168.61755371
105.53583332 20.98555557 174.03234863
105.53611110 20.98555557 181.21522522
105.53638888 20.98555557 176.27226257
105.53666666 20.98555557 171.70033264
105.53694443 20.98555557 180.58805847
105.53722221 20.98555557 187.54817200
105.53749999 20.98555557 185.24549866
105.53777777 20.98555557 187.28318787
105.53805554 20.98555557 178.26741028
105.53833332 20.98555557 175.61843872
105.53861110 20.98555557 179.57078552
105.53888888 20.98555557 187.04983521
105.53916666 20.98555557 187.33795166
105.53944443 20.98555557 191.91104126
105.53972221 20.98555557 185.40264893
105.53999999 20.98555557 183.83422852
105.54027777 20.98555557 188.86878967
105.54055554 20.98555557 185.67672729
105.54083332 20.98555557 185.49176025
105.54111110 20.98555557 180.54534912
105.54138888 20.98555557 173.47257996
105.54166666 20.98555557 179.82693481
105.54194443 20.98555557 183.85353088
105.54222221 20.98555557 191.70396423
105.54249999 20.98555557 184.93615723
105.54277777 20.98555557 180.53747559
105.54305554 20.98555557 179.58691406
105.54333332 20.98555557 179.19013977
105.54361110 20.98555557 182.54620361
105.54388888 20.98555557 182.38577271
105.54416666 20.98555557 180.65292358
105.54444443 20.98555557 181.51901245
105.54472221 20.98555557 179.40817261
105.54499999 20.98555557 176.41088867
105.54527777 20.98555557 177.14848328
105.54555554 20.98555557 183.02682495
105.54583332 20.98555557 195.29208374
105.54611110 20.98555557 196.06999207
105.54638888 20.98555557 195.82156372
105.54666666 20.98555557 205.14808655
105.54694443 20.98555557 202.22918701
105.54722221 20.98555557 189.68075562
105.54749999 20.98555557 181.83644104
105.54777777 20.98555557 186.32194519
105.54805554 20.98555557 190.76847839
105.54833332 20.98555557 181.04945374
105.54861110 20.98555557 188.08647156
105.54888888 20.98555557 202.22560120
105.54916666 20.98555557 193.21737671
105.54944443 20.98555557 182.58537292
105.54972221 20.98555557 171.60035706
105.54999999 20.98555557 164.46791077
105.55027777 20.98555557 174.52102661
105.55055554 20.98555557 182.54948425
105.55083332 20.98555557 182.17921448
105.55111110 20.98555557 182.28634644
105.55138888 20.98555557 182.24003601
105.55166666 20.98555557 180.25859070
105.55194443 20.98555557 180.52192688
105.55222221 20.98555557 181.80220032
105.55249999 20.98555557 180.96098328
105.55277777 20.98555557 179.95721436
105.55305554 20.98555557 179.03765869
105.55333332 20.98555557 180.25094604
105.55361110 20.98555557 183.15379333
105.55388888 20.98555557 182.93896484
105.55416666 20.98555557 178.37179565
105.55444443 20.98555557 181.81506348
105.55472221 20.98555557 186.89323425
105.55499999 20.98555557 186.90959167
105.55527777 20.98555557 188.24047852
105.55555554 20.98555557 188.81468201
105.55583332 20.98555557 186.85955811
105.55611110 20.98555557 185.38903809
105.55638888 20.98555557 188.64012146
105.55666666 20.98555557 187.38565063
105.55694443 20.98555557 183.31356812
105.55722221 20.98555557 183.27513123
105.52583332 20.98527779 178.21591187
105.52611110 20.98527779 183.22883606
105.52638888 20.98527779 181.32978821
105.52666666 20.98527779 180.67877197
105.52694443 20.98527779 176.52253723
105.52722221 20.98527779 175.69668579
105.52749999 20.98527779 178.17915344
105.52777777 20.98527779 186.01248169
105.52805554 20.98527779 201.18353271
105.52833332 20.98527779 203.18371582
105.52861110 20.98527779 184.85423279
105.52888888 20.98527779 171.83206177
105.52916666 20.98527779 178.02253723
105.52944443 20.98527779 172.65522766
105.52972221 20.98527779 177.73466492
105.52999999 20.98527779 182.18995667
105.53027777 20.98527779 160.85125732
105.53055554 20.98527779 158.36956787
105.53083332 20.98527779 168.83488464
105.53111110 20.98527779 178.30490112
105.53138888 20.98527779 180.40710449
105.53166666 20.98527779 180.94848633
105.53194443 20.98527779 181.76426697
105.53222221 20.98527779 179.13899231
105.53249999 20.98527779 173.43412781
105.53277777 20.98527779 177.80546570
105.53305554 20.98527779 180.69721985
105.53333332 20.98527779 180.75874329
105.53361110 20.98527779 182.76121521
105.53388888 20.98527779 179.54266357
105.53416666 20.98527779 169.07373047
105.53444443 20.98527779 158.09417725
105.53472221 20.98527779 161.79841614
105.53499999 20.98527779 167.37971497
105.53527777 20.98527779 163.90913391
105.53555554 20.98527779 162.14360046
105.53583332 20.98527779 170.40270996
105.53611110 20.98527779 174.79792786
105.53638888 20.98527779 171.21713257
105.53666666 20.98527779 178.42562866
105.53694443 20.98527779 181.56819153
105.53722221 20.98527779 184.02882385
105.53749999 20.98527779 181.84271240
105.53777777 20.98527779 184.74353027
105.53805554 20.98527779 177.49992371
105.53833332 20.98527779 161.29528809
105.53861110 20.98527779 180.81854248
105.53888888 20.98527779 195.93875122
105.53916666 20.98527779 183.33218384
105.53944443 20.98527779 179.54895020
105.53972221 20.98527779 173.16119385
105.53999999 20.98527779 179.90188599
105.54027777 20.98527779 182.66456604
105.54055554 20.98527779 181.04058838
105.54083332 20.98527779 182.84602356
105.54111110 20.98527779 177.91146851
105.54138888 20.98527779 178.04832458
105.54166666 20.98527779 185.31823730
105.54194443 20.98527779 192.12271118
105.54222221 20.98527779 185.79127502
105.54249999 20.98527779 167.75376892
105.54277777 20.98527779 170.80935669
105.54305554 20.98527779 177.36007690
105.54333332 20.98527779 180.03797913
105.54361110 20.98527779 180.70124817
105.54388888 20.98527779 180.97436523
105.54416666 20.98527779 180.27072144
105.54444443 20.98527779 180.82089233
105.54472221 20.98527779 177.35952759
105.54499999 20.98527779 177.26382446
105.54527777 20.98527779 177.82061768
105.54555554 20.98527779 193.90180969
105.54583332 20.98527779 213.28564453
105.54611110 20.98527779 204.11387634
105.54638888 20.98527779 197.41218567
105.54666666 20.98527779 200.31935120
105.54694443 20.98527779 190.53494263
105.54722221 20.98527779 181.28501892
105.54749999 20.98527779 183.88569641
105.54777777 20.98527779 189.79614258
105.54805554 20.98527779 182.95680237
105.54833332 20.98527779 181.20712280
105.54861110 20.98527779 193.88047791
105.54888888 20.98527779 186.89253235
105.54916666 20.98527779 170.86080933
105.54944443 20.98527779 164.87051392
105.54972221 20.98527779 165.19688416
105.54999999 20.98527779 167.52471924
105.55027777 20.98527779 179.22355652
105.55055554 20.98527779 181.92294312
105.55083332 20.98527779 181.18231201
105.55111110 20.98527779 185.28051758
105.55138888 20.98527779 181.41580200
105.55166666 20.98527779 180.07974243
105.55194443 20.98527779 181.68507385
105.55222221 20.98527779 180.82673645
105.55249999 20.98527779 179.13044739
105.55277777 20.98527779 179.23175049
105.55305554 20.98527779 179.81581116
105.55333332 20.98527779 184.74330139
105.55361110 20.98527779 189.54399109
105.55388888 20.98527779 180.44360352
105.55416666 20.98527779 175.60455322
105.55444443 20.98527779 183.23937988
105.55472221 20.98527779 182.62162781
105.55499999 20.98527779 183.43200684
105.55527777 20.98527779 185.14637756
105.55555554 20.98527779 187.73420715
105.55583332 20.98527779 185.76428223
105.55611110 20.98527779 185.21470642
105.55638888 20.98527779 187.92936707
105.55666666 20.98527779 186.87815857
105.55694443 20.98527779 182.63339233
105.52611110 20.98500001 181.60525513
105.52638888 20.98500001 181.33723450
105.52666666 20.98500001 179.87973022
105.52694443 20.98500001 179.28240967
105.52722221 20.98500001 175.58399963
105.52749999 20.98500001 180.20849609
105.52777777 20.98500001 191.87301636
105.52805554 20.98500001 194.11851501
105.52833332 20.98500001 184.16511536
105.52861110 20.98500001 173.95755005
105.52888888 20.98500001 177.00903320
105.52916666 20.98500001 172.66537476
105.52944443 20.98500001 168.74151611
105.52972221 20.98500001 178.16784668
105.52999999 20.98500001 169.78730774
105.53027777 20.98500001 159.50819397
105.53055554 20.98500001 174.42959595
105.53083332 20.98500001 180.01501465
105.53111110 20.98500001 182.08496094
105.53138888 20.98500001 181.62640381
105.53166666 20.98500001 181.11808777
105.53194443 20.98500001 179.91213989
105.53222221 20.98500001 176.86174011
105.53249999 20.98500001 175.82723999
105.53277777 20.98500001 178.66413879
105.53305554 20.98500001 183.72158813
105.53333332 20.98500001 181.50393677
105.53361110 20.98500001 175.10186768
105.53388888 20.98500001 160.75016785
105.53416666 20.98500001 151.36944580
105.53444443 20.98500001 158.87734985
105.53472221 20.98500001 169.49633789
105.53499999 20.98500001 169.63360596
105.53527777 20.98500001 165.71823120
105.53555554 20.98500001 170.27326965
105.53583332 20.98500001 176.46105957
105.53611110 20.98500001 174.82090759
105.53638888 20.98500001 174.85449219
105.53666666 20.98500001 182.21075439
105.53694443 20.98500001 184.85049438
105.53722221 20.98500001 187.65950012
105.53749999 20.98500001 176.98629761
105.53777777 20.98500001 184.42526245
105.53805554 20.98500001 172.74707031
105.53833332 20.98500001 167.57530212
105.53861110 20.98500001 199.20704651
105.53888888 20.98500001 191.80369568
105.53916666 20.98500001 174.98574829
105.53944443 20.98500001 172.69569397
105.53972221 20.98500001 177.02455139
105.53999999 20.98500001 187.48919678
105.54027777 20.98500001 186.56158447
105.54055554 20.98500001 188.36274719
105.54083332 20.98500001 186.61564636
105.54111110 20.98500001 183.45169067
105.54138888 20.98500001 184.33439636
105.54166666 20.98500001 186.68791199
105.54194443 20.98500001 184.46290588
105.54222221 20.98500001 178.36897278
105.54249999 20.98500001 167.94023132
105.54277777 20.98500001 169.96109009
105.54305554 20.98500001 178.52577209
105.54333332 20.98500001 179.21997070
105.54361110 20.98500001 179.60969543
105.54388888 20.98500001 180.11027527
105.54416666 20.98500001 179.88316345
105.54444443 20.98500001 179.39080811
105.54472221 20.98500001 177.89567566
105.54499999 20.98500001 174.86416626
105.54527777 20.98500001 178.34611511
105.54555554 20.98500001 204.54525757
105.54583332 20.98500001 200.39408875
105.54611110 20.98500001 178.08160400
105.54638888 20.98500001 182.15853882
105.54666666 20.98500001 188.13012695
105.54694443 20.98500001 180.41859436
105.54722221 20.98500001 179.34634399
105.54749999 20.98500001 184.27783203
105.54777777 20.98500001 179.05335999
105.54805554 20.98500001 175.67553711
105.54833332 20.98500001 181.84750366
105.54861110 20.98500001 177.14921570
105.54888888 20.98500001 164.69691467
105.54916666 20.98500001 168.19371033
105.54944443 20.98500001 175.12905884
105.54972221 20.98500001 175.58255005
105.54999999 20.98500001 174.04635620
105.55027777 20.98500001 180.05633545
105.55055554 20.98500001 182.91127014
105.55083332 20.98500001 192.79635620
105.55111110 20.98500001 191.76882935
105.55138888 20.98500001 183.52186584
105.55166666 20.98500001 180.88816833
105.55194443 20.98500001 180.26133728
105.55222221 20.98500001 178.57600403
105.55249999 20.98500001 180.04058838
105.55277777 20.98500001 180.34515381
105.55305554 20.98500001 182.14535522
105.55333332 20.98500001 186.07397461
105.55361110 20.98500001 179.82403564
105.55388888 20.98500001 168.80412292
105.55416666 20.98500001 175.71061707
105.55444443 20.98500001 184.04423523
105.55472221 20.98500001 182.60942078
105.55499999 20.98500001 183.10772705
105.55527777 20.98500001 186.51116943
105.55555554 20.98500001 188.99827576
105.55583332 20.98500001 185.64128113
105.55611110 20.98500001 183.31900024
105.55638888 20.98500001 187.22155762
105.55666666 20.98500001 182.09812927
