105.56194443 21.02000001 1.79266167
105.56222221 21.02000001 1.60405171
105.56249999 21.02000001 1.75199950
105.56277777 21.02000001 1.26980889
105.56305554 21.02000001 0.83715361
105.56333332 21.02000001 1.24515045
105.56361110 21.02000001 2.69447637
105.56388888 21.02000001 2.80997229
105.56416666 21.02000001 1.83048701
105.56444443 21.02000001 1.75009596
105.56472221 21.02000001 1.42525053
105.56499999 21.02000001 1.67467153
105.56527777 21.02000001 1.34518087
105.56555554 21.02000001 1.92521679
105.56583332 21.02000001 1.86890447
105.56611110 21.02000001 1.38063729
105.56638888 21.02000001 1.56333029
105.56666666 21.02000001 1.94868410
105.56694443 21.02000001 1.05354416
105.56722221 21.02000001 0.30694336
105.56749999 21.02000001 0.68246335
105.56777777 21.02000001 1.48682213
105.56805554 21.02000001 2.53240132
105.51083332 21.01972223 1.23134744
105.51111110 21.01972223 1.27565908
105.51138888 21.01972223 0.67003590
105.51166666 21.01972223 0.67421049
105.51194443 21.01972223 0.59588081
105.51222221 21.01972223 0.29996407
105.51249999 21.01972223 0.42250386
105.51277777 21.01972223 0.40305197
105.51305554 21.01972223 0.27754739
105.51333332 21.01972223 0.43561834
105.51361110 21.01972223 0.52204633
105.51388888 21.01972223 0.47058049
105.51416666 21.01972223 0.34227914
105.51444443 21.01972223 0.07641552
105.51472221 21.01972223 0.21658687
105.51499999 21.01972223 0.23682734
105.51527777 21.01972223 0.16167104
105.51555554 21.01972223 0.15933381
105.51583332 21.01972223 0.13676597
105.51611110 21.01972223 0.14649948
105.51638888 21.01972223 0.10120502
105.51666666 21.01972223 0.14510274
105.51694443 21.01972223 0.49340793
105.51722221 21.01972223 0.58144832
105.51749999 21.01972223 1.03411412
105.51777777 21.01972223 1.14493895
105.51805554 21.01972223 1.22731972
105.51833332 21.01972223 1.24132061
105.51861110 21.01972223 1.01136732
105.51888888 21.01972223 0.85079843
105.51916666 21.01972223 0.91818827
105.51944443 21.01972223 1.07613838
105.51972221 21.01972223 0.91848534
105.51999999 21.01972223 1.67255127
105.52027777 21.01972223 0.91411096
105.52055554 21.01972223 0.80277222
105.52083332 21.01972223 0.87647134
105.52111110 21.01972223 2.26902795
105.52138888 21.01972223 2.36118817
105.52166666 21.01972223 2.44814539
105.52194443 21.01972223 3.56094980
105.52222221 21.01972223 4.08640718
105.52249999 21.01972223 4.38129282
105.52277777 21.01972223 4.51932955
105.52305554 21.01972223 3.61928773
105.52333332 21.01972223 2.88358903
105.52361110 21.01972223 4.58956337
105.52388888 21.01972223 5.39414454
105.52416666 21.01972223 4.97613144
105.52444443 21.01972223 2.58868122
105.52472221 21.01972223 5.44483042
105.52499999 21.01972223 6.66530418
105.52527777 21.01972223 4.81330824
105.52555554 21.01972223 4.52882385
105.52583332 21.01972223 3.67913604
105.52611110 21.01972223 2.10780549
105.52638888 21.01972223 0.97470891
105.52666666 21.01972223 0.28976503
105.52694443 21.01972223 0.33143616
105.52722221 21.01972223 0.40326896
105.52749999 21.01972223 0.65080023
105.52777777 21.01972223 0.85665864
105.52805554 21.01972223 0.92930853
105.52833332 21.01972223 0.98815703
105.52861110 21.01972223 1.00506449
105.52888888 21.01972223 1.86733198
105.52916666 21.01972223 2.36453962
105.52944443 21.01972223 2.88260150
105.52972221 21.01972223 2.98598838
105.52999999 21.01972223 3.10015011
105.53027777 21.01972223 2.88125205
105.53055554 21.01972223 1.53794777
105.53083332 21.01972223 1.66580713
105.53111110 21.01972223 1.17208755
105.53138888 21.01972223 1.07826769
105.53166666 21.01972223 1.17757988
105.53194443 21.01972223 0.88897419
105.53222221 21.01972223 1.67175531
105.53249999 21.01972223 1.50558364
105.53277777 21.01972223 1.87911248
105.53305554 21.01972223 1.49654138
105.53333332 21.01972223 0.57999218
105.53361110 21.01972223 0.29752547
105.53388888 21.01972223 0.46414456
105.53416666 21.01972223 0.96987158
105.53444443 21.01972223 1.86741495
105.53472221 21.01972223 2.23624182
105.53499999 21.01972223 2.15754771
105.53527777 21.01972223 1.79647839
105.53555554 21.01972223 1.93592560
105.53583332 21.01972223 2.28868413
105.53611110 21.01972223 2.30460811
105.53638888 21.01972223 2.01277280
105.53666666 21.01972223 1.42044103
105.53694443 21.01972223 1.35794902
105.53722221 21.01972223 1.15681589
105.53749999 21.01972223 1.01176286
105.53777777 21.01972223 1.44492602
105.53805554 21.01972223 1.70968270
105.53833332 21.01972223 1.15246797
105.53861110 21.01972223 0.86799544
105.53888888 21.01972223 0.89965606
105.53916666 21.01972223 0.74829948
105.53944443 21.01972223 0.55076832
105.53972221 21.01972223 0.32861516
105.53999999 21.01972223 0.81875831
105.54027777 21.01972223 1.67878759
105.54055554 21.01972223 1.60468185
105.54083332 21.01972223 1.30929959
105.54111110 21.01972223 1.03377378
105.54138888 21.01972223 0.45593134
105.54166666 21.01972223 0.00000000
105.54194443 21.01972223 0.00000000
105.54222221 21.01972223 0.00000000
105.54249999 21.01972223 0.00000000
105.54277777 21.01972223 0.00000000
105.54305554 21.01972223 0.00000000
105.54333332 21.01972223 0.73441792
105.54361110 21.01972223 1.04958439
105.54388888 21.01972223 1.53349733
105.54416666 21.01972223 1.89620078
105.54444443 21.01972223 1.98004425
105.54472221 21.01972223 1.63419354
105.54499999 21.01972223 0.94194251
105.54527777 21.01972223 0.00000000
105.54555554 21.01972223 0.00000000
105.54583332 21.01972223 0.00000000
105.54611110 21.01972223 0.00000000
105.54638888 21.01972223 0.00000000
105.54666666 21.01972223 0.00000000
105.54694443 21.01972223 0.00000000
105.54722221 21.01972223 0.00000000
105.54749999 21.01972223 0.00000000
105.54777777 21.01972223 0.00000000
105.54805554 21.01972223 0.00000000
105.54833332 21.01972223 0.00000000
105.54861110 21.01972223 0.00000000
105.54888888 21.01972223 0.02082189
105.54916666 21.01972223 0.86446220
105.54944443 21.01972223 1.70709860
105.54972221 21.01972223 2.05767894
105.54999999 21.01972223 1.42791307
105.55027777 21.01972223 1.14951944
105.55055554 21.01972223 0.75873125
105.55083332 21.01972223 0.79604870
105.55111110 21.01972223 1.48015749
105.55138888 21.01972223 1.44348431
105.55166666 21.01972223 1.29333174
105.55194443 21.01972223 2.05028963
105.55222221 21.01972223 2.69213724
105.55249999 21.01972223 2.33104086
105.55277777 21.01972223 2.35589528
105.55305554 21.01972223 1.53531611
105.55333332 21.01972223 1.19173574
105.55361110 21.01972223 1.97818041
105.55388888 21.01972223 2.24850988
105.55416666 21.01972223 2.12656450
105.55444443 21.01972223 1.11598921
105.55472221 21.01972223 1.08107615
105.55499999 21.01972223 1.66711974
105.55527777 21.01972223 2.26684475
105.55555554 21.01972223 1.53975987
105.55583332 21.01972223 1.72781730
105.55611110 21.01972223 1.05840635
105.55638888 21.01972223 0.27867615
105.55666666 21.01972223 0.25436005
105.55694443 21.01972223 0.37759924
105.55722221 21.01972223 1.28134596
105.55749999 21.01972223 2.14192772
105.55777777 21.01972223 2.01424241
105.55805554 21.01972223 2.43558598
105.55833332 21.01972223 3.01935124
105.55861110 21.01972223 2.92147064
105.55888888 21.01972223 1.84204936
105.55916666 21.01972223 1.50558400
105.55944443 21.01972223 1.62857234
105.55972221 21.01972223 3.01094198
105.55999999 21.01972223 2.72768831
105.56027777 21.01972223 2.35918760
105.56055554 21.01972223 1.46486092
105.56083332 21.01972223 0.81464773
105.56111110 21.01972223 0.13923998
105.56138888 21.01972223 0.80861378
105.56166666 21.01972223 1.37462938
105.56194443 21.01972223 1.37888718
105.56222221 21.01972223 1.71486855
105.56249999 21.01972223 1.94436288
105.56277777 21.01972223 1.93127334
105.56305554 21.01972223 0.98128134
105.56333332 21.01972223 0.85449660
105.56361110 21.01972223 1.37755907
105.56388888 21.01972223 1.18887901
105.56416666 21.01972223 1.78208792
105.56444443 21.01972223 1.90827620
105.56472221 21.01972223 1.85751557
105.56499999 21.01972223 1.87603855
105.56527777 21.01972223 2.02916265
105.56555554 21.01972223 2.25877261
105.56583332 21.01972223 2.03859472
105.56611110 21.01972223 1.57548571
105.56638888 21.01972223 2.33963490
105.56666666 21.01972223 2.12186837
105.56694443 21.01972223 0.48088902
105.56722221 21.01972223 0.34517419
105.56749999 21.01972223 0.47620705
105.56777777 21.01972223 1.52632594
105.56805554 21.01972223 1.60271692
105.56833332 21.01972223 2.33194041
105.56861110 21.01972223 1.89003539
105.51027777 21.01944446 0.58265591
105.51055554 21.01944446 1.19778669
105.51083332 21.01944446 1.83872676
105.51111110 21.01944446 1.13771415
105.51138888 21.01944446 0.80166799
105.51166666 21.01944446 0.72015744
105.51194443 21.01944446 0.89848900
105.51222221 21.01944446 0.58017582
105.51249999 21.01944446 0.30332321
105.51277777 21.01944446 0.33345515
105.51305554 21.01944446 0.29631549
105.51333332 21.01944446 1.36202061
105.51361110 21.01944446 1.32268238
105.51388888 21.01944446 1.44513679
105.51416666 21.01944446 0.90554816
105.51444443 21.01944446 0.33266148
105.51472221 21.01944446 0.27439713
105.51499999 21.01944446 0.22854042
105.51527777 21.01944446 0.22022146
105.51555554 21.01944446 0.19411439
105.51583332 21.01944446 0.36804834
105.51611110 21.01944446 0.10995565
105.51638888 21.01944446 0.14585757
105.51666666 21.01944446 0.19444241
105.51694443 21.01944446 0.64069182
105.51722221 21.01944446 1.30239964
105.51749999 21.01944446 1.53170550
105.51777777 21.01944446 1.34641171
105.51805554 21.01944446 1.07668173
105.51833332 21.01944446 0.63582492
105.51861110 21.01944446 0.55025822
105.51888888 21.01944446 0.52849007
105.51916666 21.01944446 0.75111330
105.51944443 21.01944446 0.79195708
105.51972221 21.01944446 0.87707061
105.51999999 21.01944446 1.16453969
105.52027777 21.01944446 0.89572531
105.52055554 21.01944446 0.80477828
105.52083332 21.01944446 0.87277442
105.52111110 21.01944446 2.21962690
105.52138888 21.01944446 2.24519563
105.52166666 21.01944446 2.05095959
105.52194443 21.01944446 2.98483753
105.52222221 21.01944446 4.51888323
105.52249999 21.01944446 4.10228109
105.52277777 21.01944446 3.96996665
105.52305554 21.01944446 3.96838713
105.52333332 21.01944446 3.86469793
105.52361110 21.01944446 5.42242289
105.52388888 21.01944446 6.58994102
105.52416666 21.01944446 4.35880423
105.52444443 21.01944446 3.08739805
105.52472221 21.01944446 4.84655809
105.52499999 21.01944446 6.36865664
105.52527777 21.01944446 5.57346296
105.52555554 21.01944446 5.58484411
105.52583332 21.01944446 4.27647352
105.52611110 21.01944446 2.95046616
105.52638888 21.01944446 2.04509354
105.52666666 21.01944446 1.04255641
105.52694443 21.01944446 0.53831613
105.52722221 21.01944446 0.50053853
105.52749999 21.01944446 0.73272419
105.52777777 21.01944446 0.98095912
105.52805554 21.01944446 1.03043079
105.52833332 21.01944446 1.01572299
105.52861110 21.01944446 2.01922846
105.52888888 21.01944446 2.84770036
105.52916666 21.01944446 2.82130766
105.52944443 21.01944446 2.57429838
105.52972221 21.01944446 2.93097186
105.52999999 21.01944446 2.27441454
105.53027777 21.01944446 1.77046752
105.53055554 21.01944446 1.59554255
105.53083332 21.01944446 1.55577552
105.53111110 21.01944446 1.37355149
105.53138888 21.01944446 2.20964384
105.53166666 21.01944446 1.73671067
105.53194443 21.01944446 1.90312278
105.53222221 21.01944446 1.51161683
105.53249999 21.01944446 1.98098254
105.53277777 21.01944446 1.75956762
105.53305554 21.01944446 1.51123989
105.53333332 21.01944446 0.59393436
105.53361110 21.01944446 0.24595162
105.53388888 21.01944446 0.63668686
105.53416666 21.01944446 0.90960222
105.53444443 21.01944446 1.34289002
105.53472221 21.01944446 1.57852936
105.53499999 21.01944446 1.99027359
105.53527777 21.01944446 1.87897766
105.53555554 21.01944446 1.63637102
105.53583332 21.01944446 1.61087632
105.53611110 21.01944446 0.46496540
105.53638888 21.01944446 0.54924423
105.53666666 21.01944446 0.44399744
105.53694443 21.01944446 0.40105873
105.53722221 21.01944446 0.74995524
105.53749999 21.01944446 0.47305128
105.53777777 21.01944446 0.52052796
105.53805554 21.01944446 0.96628112
105.53833332 21.01944446 1.28934884
105.53861110 21.01944446 1.29855144
105.53888888 21.01944446 1.24839747
105.53916666 21.01944446 1.39330280
105.53944443 21.01944446 1.15818465
105.53972221 21.01944446 1.24841619
105.53999999 21.01944446 1.84982073
105.54027777 21.01944446 1.95445395
105.54055554 21.01944446 1.87809336
105.54083332 21.01944446 0.83554775
105.54111110 21.01944446 0.38056597
105.54138888 21.01944446 0.00000000
105.54166666 21.01944446 0.00000000
105.54194443 21.01944446 0.00000000
105.54222221 21.01944446 0.00000000
105.54249999 21.01944446 0.00000000
105.54277777 21.01944446 0.00000000
105.54305554 21.01944446 0.99029732
105.54333332 21.01944446 1.87522423
105.54361110 21.01944446 1.82425034
105.54388888 21.01944446 1.92502701
105.54416666 21.01944446 2.15380859
105.54444443 21.01944446 2.39529014
105.54472221 21.01944446 2.06815147
105.54499999 21.01944446 1.93136060
105.54527777 21.01944446 1.13376844
105.54555554 21.01944446 0.00000000
105.54583332 21.01944446 0.00000000
105.54611110 21.01944446 0.00000000
105.54638888 21.01944446 0.00000000
105.54666666 21.01944446 0.00000000
105.54694443 21.01944446 0.00000000
105.54722221 21.01944446 0.00000000
105.54749999 21.01944446 0.00000000
105.54777777 21.01944446 0.00000000
105.54805554 21.01944446 0.00000000
105.54833332 21.01944446 0.00000000
105.54861110 21.01944446 0.00000000
105.54888888 21.01944446 0.00000000
105.54916666 21.01944446 1.45595396
105.54944443 21.01944446 1.96181774
105.54972221 21.01944446 1.53231168
105.54999999 21.01944446 1.27133846
105.55027777 21.01944446 0.67439198
105.55055554 21.01944446 0.89919698
105.55083332 21.01944446 1.30316830
105.55111110 21.01944446 1.25175643
105.55138888 21.01944446 1.21661079
105.55166666 21.01944446 1.56999552
105.55194443 21.01944446 1.64638007
105.55222221 21.01944446 1.43822479
105.55249999 21.01944446 1.49812400
105.55277777 21.01944446 1.42671084
105.55305554 21.01944446 1.16659582
105.55333332 21.01944446 1.32137203
105.55361110 21.01944446 1.68792367
105.55388888 21.01944446 1.86062336
105.55416666 21.01944446 1.16203117
105.55444443 21.01944446 1.41299105
105.55472221 21.01944446 2.01937270
105.55499999 21.01944446 2.11823988
105.55527777 21.01944446 2.03623033
105.55555554 21.01944446 2.16242409
105.55583332 21.01944446 1.88849759
105.55611110 21.01944446 0.80810040
105.55638888 21.01944446 0.60295618
105.55666666 21.01944446 0.69572240
105.55694443 21.01944446 0.74148268
105.55722221 21.01944446 1.23427618
105.55749999 21.01944446 2.22339678
105.55777777 21.01944446 1.98181832
105.55805554 21.01944446 1.46876895
105.55833332 21.01944446 1.83625376
105.55861110 21.01944446 1.65649700
105.55888888 21.01944446 1.87109578
105.55916666 21.01944446 1.70479667
105.55944443 21.01944446 2.77298045
105.55972221 21.01944446 2.92487359
105.55999999 21.01944446 2.91623282
105.56027777 21.01944446 1.22696531
105.56055554 21.01944446 0.21323583
105.56083332 21.01944446 0.12952349
105.56111110 21.01944446 0.26963308
105.56138888 21.01944446 0.97981387
105.56166666 21.01944446 1.42688489
105.56194443 21.01944446 1.07049608
105.56222221 21.01944446 0.90741986
105.56249999 21.01944446 1.04363310
105.56277777 21.01944446 2.01897287
105.56305554 21.01944446 1.40855575
105.56333332 21.01944446 1.05484486
105.56361110 21.01944446 1.35993338
105.56388888 21.01944446 1.85964465
105.56416666 21.01944446 2.39779329
105.56444443 21.01944446 1.48565555
105.56472221 21.01944446 1.51620018
105.56499999 21.01944446 1.17383492
105.56527777 21.01944446 1.58325136
105.56555554 21.01944446 1.72676396
105.56583332 21.01944446 1.59621835
105.56611110 21.01944446 1.42650414
105.56638888 21.01944446 2.41939092
105.56666666 21.01944446 2.43314886
105.56694443 21.01944446 0.27672806
105.56722221 21.01944446 0.20479646
105.56749999 21.01944446 0.34921229
105.56777777 21.01944446 0.63372958
105.56805554 21.01944446 1.35596430
105.56833332 21.01944446 1.75692844
105.56861110 21.01944446 1.74444771
105.56888888 21.01944446 2.16641712
105.56916666 21.01944446 1.09533894
105.56944443 21.01944446 1.58892882
105.50999999 21.01916668 0.54925507
105.51027777 21.01916668 0.64654148
105.51055554 21.01916668 0.73504400
105.51083332 21.01916668 1.12620783
105.51111110 21.01916668 1.31941950
105.51138888 21.01916668 0.54042941
105.51166666 21.01916668 0.82909453
105.51194443 21.01916668 0.88148433
105.51222221 21.01916668 0.76345050
105.51249999 21.01916668 0.30855393
105.51277777 21.01916668 0.43115237
105.51305554 21.01916668 1.67986000
105.51333332 21.01916668 2.08143878
105.51361110 21.01916668 2.69662094
105.51388888 21.01916668 1.60063803
105.51416666 21.01916668 0.73266476
105.51444443 21.01916668 0.51591593
105.51472221 21.01916668 0.39118996
105.51499999 21.01916668 0.52225584
105.51527777 21.01916668 0.27558222
105.51555554 21.01916668 0.40491149
105.51583332 21.01916668 0.31243822
105.51611110 21.01916668 0.52812326
105.51638888 21.01916668 1.12030983
105.51666666 21.01916668 1.69371831
105.51694443 21.01916668 1.85683739
105.51722221 21.01916668 1.55705512
105.51749999 21.01916668 1.50089574
105.51777777 21.01916668 1.26678801
105.51805554 21.01916668 0.87511200
105.51833332 21.01916668 0.67293143
105.51861110 21.01916668 0.50985432
105.51888888 21.01916668 0.49410427
105.51916666 21.01916668 0.70379072
105.51944443 21.01916668 0.94698280
105.51972221 21.01916668 0.73476595
105.51999999 21.01916668 1.12817430
105.52027777 21.01916668 1.43471181
105.52055554 21.01916668 1.29420328
105.52083332 21.01916668 1.07880342
105.52111110 21.01916668 1.04192626
105.52138888 21.01916668 1.46302414
105.52166666 21.01916668 1.23502731
105.52194443 21.01916668 1.95948958
105.52222221 21.01916668 1.41582656
105.52249999 21.01916668 1.68156254
105.52277777 21.01916668 1.38682830
105.52305554 21.01916668 1.93877649
105.52333332 21.01916668 3.82513905
105.52361110 21.01916668 4.76564741
105.52388888 21.01916668 4.01721144
105.52416666 21.01916668 3.72839546
105.52444443 21.01916668 2.92534971
105.52472221 21.01916668 3.69959521
105.52499999 21.01916668 4.06237030
105.52527777 21.01916668 4.14316082
105.52555554 21.01916668 3.71247864
105.52583332 21.01916668 2.78447390
105.52611110 21.01916668 2.80423975
105.52638888 21.01916668 2.45443010
105.52666666 21.01916668 2.51930809
105.52694443 21.01916668 2.18857741
105.52722221 21.01916668 0.96564984
105.52749999 21.01916668 1.20213270
105.52777777 21.01916668 0.98950541
105.52805554 21.01916668 1.28752851
105.52833332 21.01916668 1.95801079
105.52861110 21.01916668 2.15769911
105.52888888 21.01916668 2.90073824
105.52916666 21.01916668 3.11400533
105.52944443 21.01916668 1.76003385
105.52972221 21.01916668 0.95571727
105.52999999 21.01916668 1.03404284
105.53027777 21.01916668 1.28829622
105.53055554 21.01916668 1.32911623
105.53083332 21.01916668 1.19134521
105.53111110 21.01916668 1.42719328
105.53138888 21.01916668 2.38049793
105.53166666 21.01916668 3.43839455
105.53194443 21.01916668 2.61101604
105.53222221 21.01916668 1.79726899
105.53249999 21.01916668 1.37582397
105.53277777 21.01916668 1.67710638
105.53305554 21.01916668 1.00946259
105.53333332 21.01916668 0.24821389
105.53361110 21.01916668 0.19213970
105.53388888 21.01916668 0.75412732
105.53416666 21.01916668 1.04696727
105.53444443 21.01916668 1.17964566
105.53472221 21.01916668 1.41428232
105.53499999 21.01916668 1.36119366
105.53527777 21.01916668 1.93935180
105.53555554 21.01916668 1.46137619
105.53583332 21.01916668 0.86966497
105.53611110 21.01916668 0.61899358
105.53638888 21.01916668 0.58940029
105.53666666 21.01916668 0.62374914
105.53694443 21.01916668 0.62336236
105.53722221 21.01916668 0.76786846
105.53749999 21.01916668 0.71917820
105.53777777 21.01916668 1.08145750
105.53805554 21.01916668 1.45047200
105.53833332 21.01916668 1.31001449
105.53861110 21.01916668 1.23744428
105.53888888 21.01916668 1.73345029
105.53916666 21.01916668 1.76485014
105.53944443 21.01916668 2.25232792
105.53972221 21.01916668 2.43491554
105.53999999 21.01916668 1.99997449
105.54027777 21.01916668 1.76644409
105.54055554 21.01916668 0.91819954
105.54083332 21.01916668 0.00000000
105.54111110 21.01916668 0.00000000
105.54138888 21.01916668 0.00000000
105.54166666 21.01916668 0.23217106
105.54194443 21.01916668 0.28583923
105.54222221 21.01916668 0.42866993
105.54249999 21.01916668 0.56504220
105.54277777 21.01916668 0.65782398
105.54305554 21.01916668 1.68165410
105.54333332 21.01916668 1.99537897
105.54361110 21.01916668 1.79327106
105.54388888 21.01916668 1.30813909
105.54416666 21.01916668 1.25283766
105.54444443 21.01916668 1.15307617
105.54472221 21.01916668 1.61519027
105.54499999 21.01916668 2.00445294
105.54527777 21.01916668 1.94318259
105.54555554 21.01916668 1.07716787
105.54583332 21.01916668 0.00000000
105.54611110 21.01916668 0.00000000
105.54638888 21.01916668 0.00000000
105.54666666 21.01916668 0.00000000
105.54694443 21.01916668 0.00000000
105.54722221 21.01916668 0.00000000
105.54749999 21.01916668 0.00000000
105.54777777 21.01916668 0.00000000
105.54805554 21.01916668 0.00000000
105.54833332 21.01916668 0.00000000
105.54861110 21.01916668 0.00000000
105.54888888 21.01916668 0.98977822
105.54916666 21.01916668 2.34648228
105.54944443 21.01916668 2.30524826
105.54972221 21.01916668 1.78943431
105.54999999 21.01916668 1.04984605
105.55027777 21.01916668 0.66073668
105.55055554 21.01916668 1.09822607
105.55083332 21.01916668 1.43260813
105.55111110 21.01916668 1.64332592
105.55138888 21.01916668 1.17177272
105.55166666 21.01916668 1.59880161
105.55194443 21.01916668 1.20022035
105.55222221 21.01916668 0.70236635
105.55249999 21.01916668 1.17587984
105.55277777 21.01916668 1.15045094
105.55305554 21.01916668 0.92054856
105.55333332 21.01916668 1.04980636
105.55361110 21.01916668 1.73913133
105.55388888 21.01916668 1.75063455
105.55416666 21.01916668 1.65235710
105.55444443 21.01916668 2.71687102
105.55472221 21.01916668 2.98416471
105.55499999 21.01916668 2.70580578
105.55527777 21.01916668 2.11196256
105.55555554 21.01916668 2.35168386
105.55583332 21.01916668 1.76263094
105.55611110 21.01916668 0.77001804
105.55638888 21.01916668 0.70285684
105.55666666 21.01916668 0.86730629
105.55694443 21.01916668 0.65866715
105.55722221 21.01916668 1.58678818
105.55749999 21.01916668 1.87237072
105.55777777 21.01916668 1.67350006
105.55805554 21.01916668 1.36869049
105.55833332 21.01916668 1.08643675
105.55861110 21.01916668 1.33928728
105.55888888 21.01916668 1.35541177
105.55916666 21.01916668 1.45260513
105.55944443 21.01916668 2.04172754
105.55972221 21.01916668 2.68410373
105.55999999 21.01916668 1.44159639
105.56027777 21.01916668 0.24033536
105.56055554 21.01916668 0.15234876
105.56083332 21.01916668 0.14369367
105.56111110 21.01916668 0.56658602
105.56138888 21.01916668 1.50484252
105.56166666 21.01916668 1.60726500
105.56194443 21.01916668 1.49892819
105.56222221 21.01916668 1.89138365
105.56249999 21.01916668 1.33309138
105.56277777 21.01916668 1.61940432
105.56305554 21.01916668 1.25955999
105.56333332 21.01916668 1.33575141
105.56361110 21.01916668 1.35357547
105.56388888 21.01916668 1.77702820
105.56416666 21.01916668 1.68224561
105.56444443 21.01916668 1.50854611
105.56472221 21.01916668 1.51501000
105.56499999 21.01916668 1.28216708
105.56527777 21.01916668 0.90726382
105.56555554 21.01916668 1.04733956
105.56583332 21.01916668 0.92950940
105.56611110 21.01916668 1.58019209
105.56638888 21.01916668 2.44706154
105.56666666 21.01916668 1.95983922
105.56694443 21.01916668 0.53380150
105.56722221 21.01916668 0.14873691
105.56749999 21.01916668 0.30572316
105.56777777 21.01916668 0.48980418
105.56805554 21.01916668 0.50505197
105.56833332 21.01916668 0.67566681
105.56861110 21.01916668 1.81197572
105.56888888 21.01916668 1.65582764
105.56916666 21.01916668 1.98993444
105.56944443 21.01916668 1.42712092
105.56972221 21.01916668 1.16524434
105.56999999 21.01916668 1.74977303
105.50972221 21.01888890 0.78023487
105.50999999 21.01888890 0.89090925
105.51027777 21.01888890 0.98234892
105.51055554 21.01888890 0.61565208
105.51083332 21.01888890 0.62977225
105.51111110 21.01888890 0.76418823
105.51138888 21.01888890 0.60258114
105.51166666 21.01888890 0.60631299
105.51194443 21.01888890 0.83548236
105.51222221 21.01888890 1.05812657
105.51249999 21.01888890 0.55963820
105.51277777 21.01888890 0.67595536
105.51305554 21.01888890 1.67796528
105.51333332 21.01888890 2.78633189
105.51361110 21.01888890 2.20091844
105.51388888 21.01888890 1.63334000
105.51416666 21.01888890 0.61640829
105.51444443 21.01888890 0.76378268
105.51472221 21.01888890 0.88202906
105.51499999 21.01888890 0.98684961
105.51527777 21.01888890 1.03863692
105.51555554 21.01888890 0.85573131
105.51583332 21.01888890 1.26579118
105.51611110 21.01888890 1.45584488
105.51638888 21.01888890 1.88233566
105.51666666 21.01888890 1.97705555
105.51694443 21.01888890 1.84616411
105.51722221 21.01888890 1.35778689
105.51749999 21.01888890 0.97432381
105.51777777 21.01888890 0.97859675
105.51805554 21.01888890 0.55777377
105.51833332 21.01888890 0.54852837
105.51861110 21.01888890 0.65708345
105.51888888 21.01888890 0.84971756
105.51916666 21.01888890 1.24276197
105.51944443 21.01888890 0.95888883
105.51972221 21.01888890 1.45894122
105.51999999 21.01888890 1.39770830
105.52027777 21.01888890 1.94934416
105.52055554 21.01888890 1.69463789
105.52083332 21.01888890 1.44987476
105.52111110 21.01888890 0.81869972
105.52138888 21.01888890 0.89733320
105.52166666 21.01888890 1.95430541
105.52194443 21.01888890 2.27334738
105.52222221 21.01888890 2.15592599
105.52249999 21.01888890 1.79362738
105.52277777 21.01888890 1.71153665
105.52305554 21.01888890 1.25476563
105.52333332 21.01888890 0.81714392
105.52361110 21.01888890 1.38083231
105.52388888 21.01888890 1.95973647
105.52416666 21.01888890 1.83601165
105.52444443 21.01888890 2.40535045
105.52472221 21.01888890 1.78800237
105.52499999 21.01888890 1.76966417
105.52527777 21.01888890 2.40748000
105.52555554 21.01888890 1.65891600
105.52583332 21.01888890 0.85586995
105.52611110 21.01888890 0.96021080
105.52638888 21.01888890 1.89651883
105.52666666 21.01888890 3.67528844
105.52694443 21.01888890 2.95630884
105.52722221 21.01888890 1.62857306
105.52749999 21.01888890 1.41324580
105.52777777 21.01888890 1.23269296
105.52805554 21.01888890 0.97068191
105.52833332 21.01888890 1.40312874
105.52861110 21.01888890 2.12447047
105.52888888 21.01888890 2.16327643
105.52916666 21.01888890 1.54298568
105.52944443 21.01888890 1.37245297
105.52972221 21.01888890 1.28178394
105.52999999 21.01888890 1.03404284
105.53027777 21.01888890 1.91306472
105.53055554 21.01888890 1.36833847
105.53083332 21.01888890 1.16514194
105.53111110 21.01888890 1.51933587
105.53138888 21.01888890 1.87952602
105.53166666 21.01888890 1.77845085
105.53194443 21.01888890 3.72284389
105.53222221 21.01888890 2.83178496
105.53249999 21.01888890 1.39299130
105.53277777 21.01888890 0.84324056
105.53305554 21.01888890 0.31671354
105.53333332 21.01888890 0.34498528
105.53361110 21.01888890 0.30991539
105.53388888 21.01888890 0.69921023
105.53416666 21.01888890 1.31876910
105.53444443 21.01888890 1.07643294
105.53472221 21.01888890 1.40954256
105.53499999 21.01888890 1.44764507
105.53527777 21.01888890 1.28921771
105.53555554 21.01888890 1.67746019
105.53583332 21.01888890 0.80037838
105.53611110 21.01888890 0.71077609
105.53638888 21.01888890 0.59579432
105.53666666 21.01888890 1.86435950
105.53694443 21.01888890 2.02610970
105.53722221 21.01888890 1.98481047
105.53749999 21.01888890 1.71113408
105.53777777 21.01888890 1.68116009
105.53805554 21.01888890 1.46453059
105.53833332 21.01888890 1.32069540
105.53861110 21.01888890 0.60841429
105.53888888 21.01888890 0.69992381
105.53916666 21.01888890 1.39122808
105.53944443 21.01888890 1.90106618
105.53972221 21.01888890 1.83911407
105.53999999 21.01888890 1.37468207
105.54027777 21.01888890 0.45957980
105.54055554 21.01888890 0.00000000
105.54083332 21.01888890 0.00000000
105.54111110 21.01888890 0.00000000
105.54138888 21.01888890 0.45861593
105.54166666 21.01888890 0.54037929
105.54194443 21.01888890 0.52891809
105.54222221 21.01888890 0.33317903
105.54249999 21.01888890 0.64259100
105.54277777 21.01888890 0.90274656
105.54305554 21.01888890 1.59130478
105.54333332 21.01888890 1.68990207
105.54361110 21.01888890 0.77881742
105.54388888 21.01888890 0.69917279
105.54416666 21.01888890 0.85987163
105.54444443 21.01888890 1.58120787
105.54472221 21.01888890 1.08106148
105.54499999 21.01888890 1.24555314
105.54527777 21.01888890 2.17305803
105.54555554 21.01888890 1.35709751
105.54583332 21.01888890 0.00000000
105.54611110 21.01888890 0.00000000
105.54638888 21.01888890 0.00000000
105.54666666 21.01888890 0.00000000
105.54694443 21.01888890 0.00000000
105.54722221 21.01888890 0.00000000
105.54749999 21.01888890 0.00000000
105.54777777 21.01888890 0.00000000
105.54805554 21.01888890 0.00000000
105.54833332 21.01888890 0.00000000
105.54861110 21.01888890 1.39986420
105.54888888 21.01888890 4.24396276
105.54916666 21.01888890 4.05934668
105.54944443 21.01888890 3.44227695
105.54972221 21.01888890 1.79452467
105.54999999 21.01888890 0.62516487
105.55027777 21.01888890 0.91806877
105.55055554 21.01888890 1.07447433
105.55083332 21.01888890 1.51758587
105.55111110 21.01888890 1.72579277
105.55138888 21.01888890 1.42459381
105.55166666 21.01888890 1.38903725
105.55194443 21.01888890 1.26358187
105.55222221 21.01888890 1.07759035
105.55249999 21.01888890 1.76796782
105.55277777 21.01888890 1.50838149
105.55305554 21.01888890 1.34591591
105.55333332 21.01888890 0.80765980
105.55361110 21.01888890 2.16052198
105.55388888 21.01888890 1.66032290
105.55416666 21.01888890 1.28070951
105.55444443 21.01888890 2.47937846
105.55472221 21.01888890 3.27283788
105.55499999 21.01888890 2.95437956
105.55527777 21.01888890 1.57858646
105.55555554 21.01888890 1.98232973
105.55583332 21.01888890 2.40279317
105.55611110 21.01888890 0.98925847
105.55638888 21.01888890 0.19676109
105.55666666 21.01888890 0.66991949
105.55694443 21.01888890 0.73573017
105.55722221 21.01888890 1.02582669
105.55749999 21.01888890 1.88623440
105.55777777 21.01888890 1.35059488
105.55805554 21.01888890 1.04281497
105.55833332 21.01888890 0.84332395
105.55861110 21.01888890 0.88223135
105.55888888 21.01888890 1.10667562
105.55916666 21.01888890 1.27287006
105.55944443 21.01888890 1.32557833
105.55972221 21.01888890 1.21509600
105.55999999 21.01888890 0.18135832
105.56027777 21.01888890 0.24362259
105.56055554 21.01888890 0.22300249
105.56083332 21.01888890 0.53539020
105.56111110 21.01888890 1.50382292
105.56138888 21.01888890 2.61461854
105.56166666 21.01888890 2.45879364
105.56194443 21.01888890 2.26233244
105.56222221 21.01888890 2.16856146
105.56249999 21.01888890 2.09034228
105.56277777 21.01888890 1.48962069
105.56305554 21.01888890 2.13550639
105.56333332 21.01888890 1.75486803
105.56361110 21.01888890 1.57807636
105.56388888 21.01888890 1.58212698
105.56416666 21.01888890 0.96969610
105.56444443 21.01888890 1.24136543
105.56472221 21.01888890 1.64964700
105.56499999 21.01888890 1.45806527
105.56527777 21.01888890 0.88405085
105.56555554 21.01888890 0.66385043
105.56583332 21.01888890 1.42886174
105.56611110 21.01888890 1.01678216
105.56638888 21.01888890 1.92633855
105.56666666 21.01888890 1.88950193
105.56694443 21.01888890 0.64551598
105.56722221 21.01888890 0.30369455
105.56749999 21.01888890 0.40246010
105.56777777 21.01888890 0.48442751
105.56805554 21.01888890 0.55719870
105.56833332 21.01888890 0.32424298
105.56861110 21.01888890 0.63282436
105.56888888 21.01888890 1.42117560
105.56916666 21.01888890 1.78711689
105.56944443 21.01888890 1.89659381
105.56972221 21.01888890 1.61097646
105.56999999 21.01888890 1.21844769
105.57027777 21.01888890 1.72684717
105.50916666 21.01861112 1.65827906
105.50944443 21.01861112 2.15223598
105.50972221 21.01861112 1.87143445
105.50999999 21.01861112 0.97860640
105.51027777 21.01861112 1.00955272
105.51055554 21.01861112 0.88368613
105.51083332 21.01861112 0.59856540
105.51111110 21.01861112 0.39021158
105.51138888 21.01861112 0.33732271
105.51166666 21.01861112 0.79399288
105.51194443 21.01861112 1.16719913
105.51222221 21.01861112 1.10220468
105.51249999 21.01861112 1.45751941
105.51277777 21.01861112 1.70219886
105.51305554 21.01861112 1.71417034
105.51333332 21.01861112 1.16776812
105.51361110 21.01861112 1.56909299
105.51388888 21.01861112 2.02277303
105.51416666 21.01861112 0.58952618
105.51444443 21.01861112 0.68660527
105.51472221 21.01861112 0.93539643
105.51499999 21.01861112 1.16069484
105.51527777 21.01861112 1.17447162
105.51555554 21.01861112 1.19641292
105.51583332 21.01861112 1.19419742
105.51611110 21.01861112 1.18166864
105.51638888 21.01861112 1.51934242
105.51666666 21.01861112 2.24347210
105.51694443 21.01861112 0.77526033
105.51722221 21.01861112 0.57036984
105.51749999 21.01861112 0.49223819
105.51777777 21.01861112 0.65157783
105.51805554 21.01861112 0.82368726
105.51833332 21.01861112 0.83591497
105.51861110 21.01861112 1.34048927
105.51888888 21.01861112 1.23040962
105.51916666 21.01861112 1.33000088
105.51944443 21.01861112 1.27788830
105.51972221 21.01861112 0.93064547
105.51999999 21.01861112 1.76962543
105.52027777 21.01861112 1.74859440
105.52055554 21.01861112 1.80638909
105.52083332 21.01861112 1.85093856
105.52111110 21.01861112 0.93652964
105.52138888 21.01861112 1.43193579
105.52166666 21.01861112 3.13438654
105.52194443 21.01861112 4.43907261
105.52222221 21.01861112 3.02076912
105.52249999 21.01861112 2.10896373
105.52277777 21.01861112 1.55532181
105.52305554 21.01861112 1.57983530
105.52333332 21.01861112 1.00668979
105.52361110 21.01861112 0.70969445
105.52388888 21.01861112 0.55874395
105.52416666 21.01861112 1.38225472
105.52444443 21.01861112 1.30893087
105.52472221 21.01861112 1.96393144
105.52499999 21.01861112 1.68414891
105.52527777 21.01861112 2.44001698
105.52555554 21.01861112 1.92614877
105.52583332 21.01861112 1.44994688
105.52611110 21.01861112 0.73689514
105.52638888 21.01861112 0.30351189
105.52666666 21.01861112 2.40917826
105.52694443 21.01861112 3.02346849
105.52722221 21.01861112 2.70667315
105.52749999 21.01861112 2.02243614
105.52777777 21.01861112 1.48907030
105.52805554 21.01861112 1.15978360
105.52833332 21.01861112 1.02623916
105.52861110 21.01861112 1.55546188
105.52888888 21.01861112 1.63413084
105.52916666 21.01861112 1.20701170
105.52944443 21.01861112 2.38542438
105.52972221 21.01861112 2.05776882
105.52999999 21.01861112 0.91124660
105.53027777 21.01861112 1.50096858
105.53055554 21.01861112 1.31977642
105.53083332 21.01861112 1.47361839
105.53111110 21.01861112 1.78723812
105.53138888 21.01861112 2.19124794
105.53166666 21.01861112 2.44670463
105.53194443 21.01861112 3.01471019
105.53222221 21.01861112 2.17277384
105.53249999 21.01861112 1.27394974
105.53277777 21.01861112 0.45075858
105.53305554 21.01861112 0.26582569
105.53333332 21.01861112 0.52813548
105.53361110 21.01861112 0.34525257
105.53388888 21.01861112 0.80119759
105.53416666 21.01861112 0.86200434
105.53444443 21.01861112 1.17826498
105.53472221 21.01861112 1.35827279
105.53499999 21.01861112 1.06959271
105.53527777 21.01861112 0.83055747
105.53555554 21.01861112 0.97732091
105.53583332 21.01861112 1.20803332
105.53611110 21.01861112 0.91585100
105.53638888 21.01861112 1.52011418
105.53666666 21.01861112 2.40025854
105.53694443 21.01861112 2.91970372
105.53722221 21.01861112 1.92912042
105.53749999 21.01861112 1.63160563
105.53777777 21.01861112 1.30339718
105.53805554 21.01861112 0.97176629
105.53833332 21.01861112 0.42674413
105.53861110 21.01861112 0.00000000
105.53888888 21.01861112 0.00000000
105.53916666 21.01861112 0.00000000
105.53944443 21.01861112 0.00000000
105.53972221 21.01861112 0.00000000
105.53999999 21.01861112 0.00000000
105.54027777 21.01861112 0.00000000
105.54055554 21.01861112 0.00000000
105.54083332 21.01861112 0.00000000
105.54111110 21.01861112 0.00000000
105.54138888 21.01861112 0.71265179
105.54166666 21.01861112 1.03470039
105.54194443 21.01861112 0.51068527
105.54222221 21.01861112 0.16624145
105.54249999 21.01861112 0.47642684
105.54277777 21.01861112 1.32699084
105.54305554 21.01861112 1.50313175
105.54333332 21.01861112 1.28400981
105.54361110 21.01861112 0.49125579
105.54388888 21.01861112 0.57459944
105.54416666 21.01861112 1.30786896
105.54444443 21.01861112 1.66689003
105.54472221 21.01861112 1.32237136
105.54499999 21.01861112 1.30677044
105.54527777 21.01861112 1.73724949
105.54555554 21.01861112 1.35709751
105.54583332 21.01861112 0.00000000
105.54611110 21.01861112 0.00000000
105.54638888 21.01861112 0.00000000
105.54666666 21.01861112 0.00000000
105.54694443 21.01861112 0.00000000
105.54722221 21.01861112 0.00000000
105.54749999 21.01861112 0.00000000
105.54777777 21.01861112 0.00000000
105.54805554 21.01861112 0.00000000
105.54833332 21.01861112 0.00000000
105.54861110 21.01861112 2.12891936
105.54888888 21.01861112 3.96253300
105.54916666 21.01861112 6.62048197
105.54944443 21.01861112 3.20535493
105.54972221 21.01861112 1.20859241
105.54999999 21.01861112 0.70130807
105.55027777 21.01861112 1.28963780
105.55055554 21.01861112 1.36534524
105.55083332 21.01861112 1.78041136
105.55111110 21.01861112 1.95978057
105.55138888 21.01861112 2.41288924
105.55166666 21.01861112 2.09312177
105.55194443 21.01861112 1.61245620
105.55222221 21.01861112 2.22965932
105.55249999 21.01861112 2.95324993
105.55277777 21.01861112 3.16546345
105.55305554 21.01861112 4.63107586
105.55333332 21.01861112 3.74211335
105.55361110 21.01861112 2.15345407
105.55388888 21.01861112 1.60087645
105.55416666 21.01861112 1.24430728
105.55444443 21.01861112 2.39208174
105.55472221 21.01861112 2.49615812
105.55499999 21.01861112 0.94413507
105.55527777 21.01861112 1.40298212
105.55555554 21.01861112 3.30706048
105.55583332 21.01861112 2.36519408
105.55611110 21.01861112 1.10082901
105.55638888 21.01861112 0.21428666
105.55666666 21.01861112 0.55086958
105.55694443 21.01861112 0.58353961
105.55722221 21.01861112 1.17334485
105.55749999 21.01861112 1.65666437
105.55777777 21.01861112 1.12520492
105.55805554 21.01861112 0.99933290
105.55833332 21.01861112 0.86962551
105.55861110 21.01861112 0.79771805
105.55888888 21.01861112 0.93776792
105.55916666 21.01861112 0.72264475
105.55944443 21.01861112 1.02364135
105.55972221 21.01861112 0.70682502
105.55999999 21.01861112 0.47028810
105.56027777 21.01861112 0.20364009
105.56055554 21.01861112 0.56112301
105.56083332 21.01861112 1.59077168
105.56111110 21.01861112 2.44677830
105.56138888 21.01861112 2.62910748
105.56166666 21.01861112 2.98874664
105.56194443 21.01861112 2.30411625
105.56222221 21.01861112 2.19548869
105.56249999 21.01861112 2.09784842
105.56277777 21.01861112 1.40701067
105.56305554 21.01861112 1.68286312
105.56333332 21.01861112 1.90209103
105.56361110 21.01861112 3.07174873
105.56388888 21.01861112 1.84235108
105.56416666 21.01861112 0.87891358
105.56444443 21.01861112 1.56635463
105.56472221 21.01861112 1.66767156
105.56499999 21.01861112 1.74766040
105.56527777 21.01861112 0.78345925
105.56555554 21.01861112 1.23498452
105.56583332 21.01861112 1.00351989
105.56611110 21.01861112 0.97510839
105.56638888 21.01861112 1.63301742
105.56666666 21.01861112 1.84896851
105.56694443 21.01861112 1.85171902
105.56722221 21.01861112 1.13329542
105.56749999 21.01861112 0.21518511
105.56777777 21.01861112 0.41273987
105.56805554 21.01861112 0.48942134
105.56833332 21.01861112 0.63041449
105.56861110 21.01861112 0.40412834
105.56888888 21.01861112 0.62719858
105.56916666 21.01861112 1.19050503
105.56944443 21.01861112 1.82365131
105.56972221 21.01861112 1.79625177
105.56999999 21.01861112 1.53069842
105.57027777 21.01861112 1.18882418
105.57055554 21.01861112 1.80071998
105.50888888 21.01833334 2.19855046
105.50916666 21.01833334 1.80497265
105.50944443 21.01833334 1.94788754
105.50972221 21.01833334 1.57227600
105.50999999 21.01833334 1.34496546
105.51027777 21.01833334 0.65777975
105.51055554 21.01833334 0.65650094
105.51083332 21.01833334 0.71688807
105.51111110 21.01833334 0.89442390
105.51138888 21.01833334 0.77389169
105.51166666 21.01833334 1.50945187
105.51194443 21.01833334 1.31730151
105.51222221 21.01833334 2.03537464
105.51249999 21.01833334 3.05712748
105.51277777 21.01833334 2.95565128
105.51305554 21.01833334 2.37994528
105.51333332 21.01833334 1.85175610
105.51361110 21.01833334 2.17008495
105.51388888 21.01833334 2.21838140
105.51416666 21.01833334 1.08193278
105.51444443 21.01833334 0.56641656
105.51472221 21.01833334 0.58848035
105.51499999 21.01833334 0.74025095
105.51527777 21.01833334 0.86641055
105.51555554 21.01833334 0.67119354
105.51583332 21.01833334 0.51637667
105.51611110 21.01833334 0.38392562
105.51638888 21.01833334 0.89968538
105.51666666 21.01833334 0.82567734
105.51694443 21.01833334 0.77913785
105.51722221 21.01833334 0.99123305
105.51749999 21.01833334 0.66118318
105.51777777 21.01833334 0.70912123
105.51805554 21.01833334 0.83434659
105.51833332 21.01833334 1.22885048
105.51861110 21.01833334 1.78168833
105.51888888 21.01833334 1.91199040
105.51916666 21.01833334 1.55692184
105.51944443 21.01833334 1.55089641
105.51972221 21.01833334 1.15451515
105.51999999 21.01833334 1.97764456
105.52027777 21.01833334 1.76874924
105.52055554 21.01833334 1.56066775
105.52083332 21.01833334 1.90656817
105.52111110 21.01833334 1.00449872
105.52138888 21.01833334 1.69995391
105.52166666 21.01833334 2.86680555
105.52194443 21.01833334 2.89665031
105.52222221 21.01833334 2.97340155
105.52249999 21.01833334 2.15442753
105.52277777 21.01833334 2.64281440
105.52305554 21.01833334 1.62318099
105.52333332 21.01833334 1.30817366
105.52361110 21.01833334 1.81220424
105.52388888 21.01833334 1.90697718
105.52416666 21.01833334 1.31727052
105.52444443 21.01833334 1.76958239
105.52472221 21.01833334 1.41224694
105.52499999 21.01833334 1.33127570
105.52527777 21.01833334 1.95430589
105.52555554 21.01833334 2.31625390
105.52583332 21.01833334 1.83796930
105.52611110 21.01833334 1.52710021
105.52638888 21.01833334 0.61149502
105.52666666 21.01833334 1.43815315
105.52694443 21.01833334 2.67139745
105.52722221 21.01833334 3.14689875
105.52749999 21.01833334 3.12704682
105.52777777 21.01833334 2.83844161
105.52805554 21.01833334 1.29858518
105.52833332 21.01833334 0.86284959
105.52861110 21.01833334 1.66500592
105.52888888 21.01833334 1.57492018
105.52916666 21.01833334 0.56581640
105.52944443 21.01833334 2.91459584
105.52972221 21.01833334 2.47186208
105.52999999 21.01833334 0.65184784
105.53027777 21.01833334 1.71952975
105.53055554 21.01833334 1.96994901
105.53083332 21.01833334 1.99794269
105.53111110 21.01833334 2.53053832
105.53138888 21.01833334 2.62826276
105.53166666 21.01833334 2.60139871
105.53194443 21.01833334 2.92284846
105.53222221 21.01833334 1.46736014
105.53249999 21.01833334 0.43684864
105.53277777 21.01833334 0.28800860
105.53305554 21.01833334 0.27034071
105.53333332 21.01833334 0.26135957
105.53361110 21.01833334 0.44239441
105.53388888 21.01833334 0.74422371
105.53416666 21.01833334 0.66549158
105.53444443 21.01833334 0.71490413
105.53472221 21.01833334 0.75369167
105.53499999 21.01833334 0.58560276
105.53527777 21.01833334 0.49159244
105.53555554 21.01833334 0.95504159
105.53583332 21.01833334 1.18737209
105.53611110 21.01833334 0.98871446
105.53638888 21.01833334 1.74778903
105.53666666 21.01833334 1.94129741
105.53694443 21.01833334 1.55803573
105.53722221 21.01833334 0.00000000
105.53749999 21.01833334 0.00000000
105.53777777 21.01833334 0.00000000
105.53805554 21.01833334 0.00000000
105.53833332 21.01833334 0.00000000
105.53861110 21.01833334 0.00000000
105.53888888 21.01833334 0.00000000
105.53916666 21.01833334 0.00000000
105.53944443 21.01833334 0.00000000
105.53972221 21.01833334 0.00000000
105.53999999 21.01833334 0.00000000
105.54027777 21.01833334 0.00000000
105.54055554 21.01833334 0.00000000
105.54083332 21.01833334 0.00000000
105.54111110 21.01833334 0.40517935
105.54138888 21.01833334 1.04436255
105.54166666 21.01833334 1.03107655
105.54194443 21.01833334 0.67785066
105.54222221 21.01833334 0.00000000
105.54249999 21.01833334 0.94648182
105.54277777 21.01833334 1.47135115
105.54305554 21.01833334 1.54395151
105.54333332 21.01833334 1.00202906
105.54361110 21.01833334 0.38194469
105.54388888 21.01833334 0.60381657
105.54416666 21.01833334 0.85768884
105.54444443 21.01833334 1.44862175
105.54472221 21.01833334 1.40751076
105.54499999 21.01833334 1.45608842
105.54527777 21.01833334 1.71476567
105.54555554 21.01833334 0.82548362
105.54583332 21.01833334 0.00000000
105.54611110 21.01833334 0.00000000
105.54638888 21.01833334 0.00000000
105.54666666 21.01833334 0.00000000
105.54694443 21.01833334 0.00000000
105.54722221 21.01833334 0.00000000
105.54749999 21.01833334 0.00000000
105.54777777 21.01833334 0.00000000
105.54805554 21.01833334 0.00000000
105.54833332 21.01833334 1.02899992
105.54861110 21.01833334 2.87618971
105.54888888 21.01833334 3.44123864
105.54916666 21.01833334 2.42429447
105.54944443 21.01833334 1.70635343
105.54972221 21.01833334 1.29417133
105.54999999 21.01833334 0.72850901
105.55027777 21.01833334 1.75267804
105.55055554 21.01833334 1.45559335
105.55083332 21.01833334 1.27691257
105.55111110 21.01833334 2.50597644
105.55138888 21.01833334 3.22434330
105.55166666 21.01833334 2.58447218
105.55194443 21.01833334 1.81001687
105.55222221 21.01833334 2.84293962
105.55249999 21.01833334 3.53441048
105.55277777 21.01833334 6.11874723
105.55305554 21.01833334 5.38484716
105.55333332 21.01833334 4.73571110
105.55361110 21.01833334 3.00009680
105.55388888 21.01833334 1.69009054
105.55416666 21.01833334 1.44398892
105.55444443 21.01833334 2.54816580
105.55472221 21.01833334 2.14598060
105.55499999 21.01833334 0.86609483
105.55527777 21.01833334 1.27719927
105.55555554 21.01833334 2.52046561
105.55583332 21.01833334 2.69312239
105.55611110 21.01833334 1.16521037
105.55638888 21.01833334 0.20475103
105.55666666 21.01833334 0.42116195
105.55694443 21.01833334 0.50004071
105.55722221 21.01833334 1.43836379
105.55749999 21.01833334 1.85196686
105.55777777 21.01833334 1.40610743
105.55805554 21.01833334 1.14892375
105.55833332 21.01833334 1.00531471
105.55861110 21.01833334 0.86863619
105.55888888 21.01833334 1.50601792
105.55916666 21.01833334 1.49716985
105.55944443 21.01833334 1.52976465
105.55972221 21.01833334 1.39700210
105.55999999 21.01833334 0.68526626
105.56027777 21.01833334 0.27984345
105.56055554 21.01833334 1.38734961
105.56083332 21.01833334 2.84419179
105.56111110 21.01833334 2.64662862
105.56138888 21.01833334 2.30026269
105.56166666 21.01833334 1.21810234
105.56194443 21.01833334 1.34333146
105.56222221 21.01833334 1.60442030
105.56249999 21.01833334 1.40054405
105.56277777 21.01833334 1.50106359
105.56305554 21.01833334 1.57389486
105.56333332 21.01833334 1.91147494
105.56361110 21.01833334 1.68322241
105.56388888 21.01833334 1.66841865
105.56416666 21.01833334 1.53001642
105.56444443 21.01833334 1.99459505
105.56472221 21.01833334 1.63624835
105.56499999 21.01833334 1.12141573
105.56527777 21.01833334 1.44946158
105.56555554 21.01833334 1.40693712
105.56583332 21.01833334 1.70381308
105.56611110 21.01833334 1.75491703
105.56638888 21.01833334 2.13959074
105.56666666 21.01833334 1.85690272
105.56694443 21.01833334 1.83608675
105.56722221 21.01833334 1.04999721
105.56749999 21.01833334 0.41001251
105.56777777 21.01833334 0.28916970
105.56805554 21.01833334 0.61128247
105.56833332 21.01833334 0.60192114
105.56861110 21.01833334 0.90082109
105.56888888 21.01833334 0.65603042
105.56916666 21.01833334 0.42222011
105.56944443 21.01833334 1.00847149
105.56972221 21.01833334 1.70988476
105.56999999 21.01833334 1.93166995
105.57027777 21.01833334 1.59332061
105.57055554 21.01833334 1.00827050
105.50861110 21.01805557 1.49346757
105.50888888 21.01805557 1.65366817
105.50916666 21.01805557 1.55777681
105.50944443 21.01805557 1.07400322
105.50972221 21.01805557 1.93088531
105.50999999 21.01805557 1.23817766
