105.56798579 20.99708016 3.64910817
105.56853653 20.99708412 4.95824337
105.56815512 20.99711035 3.56282043
105.56849935 20.99711750 5.24738026
105.56841960 20.99713347 5.39073372
105.56804553 20.99713476 3.62091923
105.56812160 20.99715360 3.48942661
105.56820843 20.99715395 5.38152027
105.57177870 20.99748627 7.54497147
105.57151767 20.99749480 6.03065634
105.57159856 20.99751797 4.24557209
105.57155652 20.99755216 4.73030233
105.57117560 20.99755882 4.56962776
105.57130488 20.99757098 5.59394312
105.57121179 20.99758988 4.45314217
105.57182545 20.99759735 7.28577423
105.57194095 20.99759940 6.49922895
105.57158508 20.99760924 4.91201401
105.57012374 20.99753195 2.84850931
105.57028731 20.99754214 2.86462069
105.57008132 20.99754852 4.84276581
105.56998635 20.99754897 4.73613310
105.56984163 20.99756399 5.04646254
105.57024232 20.99757561 2.54359722
105.57014052 20.99757700 3.36944437
105.57002080 20.99758836 5.73022175
105.56966029 20.99759065 5.63481808
105.56981004 20.99760585 3.40588808
105.57105880 20.99751335 6.15029812
105.57052706 20.99752396 4.61526155
105.57098569 20.99754647 6.59693241
105.57046969 20.99755586 5.68333435
105.57053224 20.99757807 4.54044390
105.57042095 20.99759311 5.37276363
105.57057636 20.99759989 5.06536722
105.57048849 20.99761074 3.83831787
105.57032091 20.99761975 2.76761246
105.57036667 20.99762517 3.39255714
105.56903835 20.99731844 1.15732694
105.56895903 20.99770139 4.96582842
105.56935477 20.99773270 6.32753420
105.56929020 20.99775951 4.13917160
105.56908920 20.99776003 2.91014385
105.56920712 20.99777301 2.84707904
105.56915128 20.99778412 2.91014385
105.56887646 20.99780514 5.34360027
105.56899799 20.99780889 3.90269828
105.56937830 20.99783192 3.76530218
105.57087662 20.99762527 6.41823769
105.57112149 20.99763254 4.97178221
105.57061158 20.99763647 5.91590548
105.57072124 20.99764061 5.69978523
105.57082406 20.99767863 4.73151112
105.57057206 20.99769321 5.91590548
105.57038912 20.99769647 2.26156950
105.57048004 20.99770194 4.54145718
105.57053548 20.99773494 5.51030302
105.57108502 20.99774237 5.74196911
105.57170712 20.99762179 3.66359687
105.57123830 20.99763911 5.04822922
105.57160399 20.99764895 5.50346994
105.57172403 20.99768100 6.20602131
105.57175927 20.99769750 5.00562572
105.57156416 20.99770641 6.24557734
105.57150303 20.99773648 5.46317768
105.57172714 20.99773790 6.38223553
105.57177125 20.99774245 6.50011206
105.57183269 20.99776148 4.98808527
105.56954202 20.99761242 3.55150843
105.57006543 20.99761719 5.73022175
105.56999813 20.99764347 5.73022175
105.56956321 20.99768220 5.52691555
105.56952955 20.99769975 5.56357956
105.57002852 20.99772655 4.34946728
105.56973130 20.99773214 3.79805446
105.56956295 20.99774754 5.62848568
105.56965430 20.99775244 4.79701328
105.56945130 20.99775738 5.82338333
105.57141151 20.99776711 6.45288563
105.57152829 20.99777070 6.68917656
105.57168856 20.99777767 6.51368475
105.57172561 20.99779379 6.50011206
105.57195384 20.99780454 4.51936817
105.57176760 20.99780779 6.50011206
105.57122196 20.99780634 5.43099880
105.57132605 20.99782477 5.11784029
105.57182368 20.99782713 5.54970598
105.57171016 20.99783694 6.65140772
105.56995109 20.99776035 5.23982096
105.57021363 20.99778564 6.30957127
105.57005470 20.99778607 4.23584938
105.56988299 20.99779041 5.89676380
105.57029620 20.99780644 4.57484579
105.56996348 20.99780872 5.02568388
105.57016134 20.99781778 5.41585255
105.56976435 20.99784012 4.28487492
105.57021547 20.99784653 5.61727905
105.57003762 20.99784932 4.79216957
105.57041751 20.99774062 2.93167520
105.57035955 20.99775740 1.87340319
105.57076131 20.99780639 4.69887400
105.57046539 20.99781081 3.51774025
105.57035866 20.99782355 2.86442590
105.57098825 20.99785320 6.57156229
105.57050916 20.99786987 3.66414452
105.57075032 20.99787068 5.20853853
105.57066221 20.99790226 5.51395130
105.57100328 20.99791148 6.12073803
105.54674884 20.98348662 0.72034025
105.54700267 20.98368925 3.67395496
105.54666652 20.98372706 1.92995358
105.55157922 20.98393567 1.26228774
105.55228904 20.98737399 4.20229530
105.55232924 20.98748663 2.56402159
105.55363598 20.98755161 3.81423759
105.55434864 20.98429475 3.55176926
105.55472895 20.98430397 3.28512287
105.55460970 20.98430467 2.83817959
105.55455189 20.98430899 2.38104296
105.55469130 20.98432489 2.97310472
105.55427014 20.98445560 1.12634027
105.55475002 20.98448777 2.16329217
105.55463221 20.98450581 1.66670263
105.55436066 20.98458558 2.67184734
105.55466447 20.98459579 2.27561975
105.55447591 20.98468448 3.53797889
105.55427794 20.98482518 0.30260688
105.55426774 20.98489714 0.07595932
105.55465377 20.98531020 2.12852335
105.55529608 20.98560418 4.01262236
105.55535761 20.98550480 4.54681635
105.55564693 20.98558153 1.73854923
105.55628219 20.98653842 1.78550029
105.55588718 20.98680113 1.62634635
105.55578816 20.98684709 3.31489515
105.55612664 20.98685925 2.00284004
105.55581705 20.98693593 3.31489515
105.55624455 20.98717748 5.93482590
105.55584114 20.98733262 3.11322165
105.55577108 20.98738925 3.49564362
105.55537168 20.98439855 1.28830683
105.55539966 20.98447898 2.08418202
105.55616701 20.98454590 3.53561068
105.55662073 20.98478949 2.31087923
105.55684935 20.98486765 1.82421136
105.55598812 20.98467715 1.72467303
105.55631817 20.98470880 3.27066088
105.55580791 20.98476342 1.94396770
105.55582788 20.98488527 3.32808208
105.55568287 20.98488607 2.42202735
105.55558633 20.98497530 1.27030122
105.55563014 20.98497690 1.68209910
105.55622223 20.98504770 3.47067308
105.55632916 20.98507925 4.91117668
105.55535479 20.98518069 1.84517980
105.55706141 20.98691446 3.34918332
105.55715104 20.98691886 2.43689442
105.55685494 20.98693216 5.36108160
105.55736293 20.98693766 4.09978771
105.55674957 20.98698126 4.87430096
105.55678470 20.98701787 5.36108160
105.55711749 20.98701839 3.43994999
105.55776597 20.98704834 3.01535368
105.55720612 20.98707166 5.67828035
105.55668512 20.98707304 4.71116400
105.55910546 20.98713188 2.12109423
105.55895201 20.98713660 3.47823596
105.55780016 20.98714853 3.73243952
105.55890301 20.98715401 3.05238819
105.55879630 20.98715061 2.59866595
105.55901837 20.98716963 3.80596638
105.55896786 20.98717543 3.80596638
105.55884061 20.98717618 2.58596087
105.55855241 20.98719353 2.95112705
105.55936441 20.98720859 3.80788350
105.55898249 20.98720944 4.14880037
105.55903743 20.98722455 3.71239591
105.55929546 20.98722463 2.69801211
105.55884707 20.98724580 3.17581320
105.55900326 20.98725213 5.19767952
105.55845971 20.98725988 3.69610643
105.55912508 20.98727461 2.31519032
105.55895368 20.98727979 5.19767952
105.55886385 20.98729793 3.17581320
105.55914926 20.98732090 3.28705573
105.55709575 20.98712415 6.02444839
105.55693840 20.98715779 4.31313944
105.55722987 20.98717494 6.08906364
105.55673680 20.98719154 2.98841572
105.55690112 20.98719263 4.31313944
105.55696736 20.98723762 3.95048189
105.55684233 20.98724757 4.12056971
105.55692964 20.98727291 3.61524439
105.55669215 20.98747385 3.13813376
105.55686787 20.98748107 2.31209707
105.55907553 20.98734197 4.11079550
105.55872868 20.98735019 5.40037537
105.55914890 20.98736486 3.46613884
105.55933490 20.98738721 4.46990681
105.55856581 20.98743911 5.50807190
105.55905484 20.98748889 4.76026630
105.55900049 20.98764071 3.87374043
105.55868131 20.98777838 4.90562773
105.55886031 20.98787888 5.41159725
105.55802824 20.98794263 5.79865837
105.55660875 20.98759080 3.25129032
105.55770909 20.98771540 3.86664629
105.55696275 20.98775727 4.56309366
105.55757588 20.98779150 4.46674347
105.55688084 20.98782114 5.47789764
105.55753239 20.98789367 4.33996677
105.55675435 20.98806004 3.44194317
105.55757875 20.98809878 5.36551809
105.55700477 20.98841391 2.79321837
105.55744911 20.98841934 3.24755907
105.55877794 20.98795183 6.24552727
105.55870147 20.98797049 5.44184971
105.55882537 20.98798072 6.35566854
105.55873530 20.98802589 6.44994164
105.55861340 20.98803624 2.21319580
105.55885177 20.98804633 6.35566854
105.55864602 20.98804576 4.56121349
105.55875738 20.98807113 6.64653587
105.55852895 20.98808977 1.57653785
105.55866701 20.98809354 6.18208981
105.55805475 20.98810064 4.83057070
105.55887007 20.98810092 5.21076965
105.55808768 20.98813558 4.39314604
105.55878227 20.98815205 6.63420677
105.55886868 20.98815404 5.66819191
105.55860294 20.98819034 1.12609375
105.55924263 20.98827272 2.47669196
105.55872679 20.98829123 1.82916522
105.55912666 20.98829298 2.06599069
105.55887070 20.98829347 6.78910303
105.55928162 20.98833723 5.14859533
105.55794789 20.98835633 5.97534513
105.55884037 20.98837317 7.87940550
105.55891294 20.98837530 7.47744465
105.55873695 20.98839618 2.72633338
105.55783602 20.98844084 2.77060795
105.55894165 20.98852596 5.71964455
105.55931605 20.98855654 5.54302120
105.55878445 20.98858123 2.53322744
105.55837863 20.98861442 2.69349074
105.55844529 20.98865526 1.19702923
105.55857652 20.99052058 2.08447385
105.55850852 20.99052803 3.27232885
105.55874338 20.99053719 3.45032740
105.55822930 20.99059862 3.14517140
105.55836265 20.99060372 4.26018381
105.55849651 20.99061386 2.93355370
105.55849221 20.99068535 2.42330265
105.55828974 20.99073258 3.20751762
105.55839282 20.99077344 2.68684220
105.56040574 20.98858436 3.37434006
105.56033260 20.98860290 2.52479601
105.56038371 20.99021891 0.04786570
105.56044780 20.99049567 1.59707355
105.55940577 20.99055157 1.88369226
105.56140024 20.99061262 1.39401531
105.56058749 20.99086187 1.66391301
105.56069179 20.99099590 3.28206038
105.56047445 20.99102023 3.66561222
105.56055710 20.99110470 4.20944023
105.55827964 20.99084962 3.57599688
105.55792820 20.99091558 5.27945995
105.55931230 20.99092608 4.94872236
105.55783841 20.99103347 3.44573975
105.55867925 20.99110453 1.72634637
105.55915218 20.99127478 1.18244481
105.55923918 20.99130261 0.92084932
105.55881772 20.99131787 0.26388073
105.55881218 20.99138509 0.27902973
105.55819180 20.99152179 9.03189278
105.55705847 20.98845865 3.25106025
105.55767872 20.98852007 1.00004816
105.55724904 20.98888388 6.58079863
105.55656936 20.98894982 4.67127895
105.55751489 20.99496005 1.54991925
105.55727958 20.99554462 3.04162216
105.55757625 20.99572844 4.05605268
105.55714314 20.99579020 4.48785353
105.55693883 20.99588863 4.39831543
105.55653354 20.99650128 3.91683483
105.55606014 20.98887834 5.44424248
105.55541530 20.98905834 7.97605705
105.55555676 20.98908729 5.09646082
105.55629431 20.98910096 6.41454744
105.55560513 20.98917820 2.73482752
105.55588841 20.98928003 2.88297415
105.55558498 20.99065443 0.97183073
105.55553141 20.99066829 1.47777510
105.55603329 20.99574248 0.95532489
105.55622037 20.99649823 2.92120242
105.55863482 20.99153779 1.05574298
105.55888668 20.99726860 3.35181212
105.55891014 20.99763621 5.63991451
105.55922009 20.99771886 4.89196682
105.55929550 20.99788288 4.76074314
105.55908127 20.99792382 4.32398987
105.55855791 20.99808219 5.38986969
105.55878325 20.99810537 4.80500412
105.55922180 20.99819456 3.75850654
105.55874002 20.99821454 2.90296006
105.56110909 20.99694086 4.52419281
105.55988743 20.99703345 4.33541250
105.56076270 20.99704710 4.76137829
105.56042200 20.99707501 4.63164806
105.56014955 20.99719165 3.75713062
105.56116811 20.99724724 4.74748945
105.56060118 20.99724309 6.07215643
105.56035817 20.99730812 4.06545639
105.56045698 20.99732225 3.29200840
105.55981691 20.99736375 4.85791302
105.55599704 20.99658690 3.28923750
105.55644668 20.99686272 5.70693064
105.55570966 20.99700598 3.03901052
105.55588619 20.99706092 5.00719070
105.55533774 20.99740465 3.38714242
105.55600387 20.99741799 1.77631927
105.55568024 20.99750039 4.02968836
105.55602489 20.99754748 2.50143194
105.55609223 20.99781971 1.95199859
105.55538612 20.99798044 2.24751568
105.55985548 20.99812456 5.32309532
105.55950407 20.99813106 3.92035079
105.56067488 20.99817800 4.25762510
105.56130833 20.99817345 5.88495541
105.56094912 20.99830562 5.04596329
105.56078061 20.99833853 2.97138786
105.56135216 20.99837940 3.68925714
105.56040386 20.99846887 5.17041397
105.56057466 20.99847587 3.21876836
105.56012942 20.99851593 4.66293097
105.55927457 20.99834881 5.78744459
105.55835419 20.99845651 4.31317282
105.55916128 20.99845978 4.44618082
105.55932844 20.99846174 3.82765794
105.55856555 20.99849906 3.51610327
105.55796032 20.99858591 3.50060153
105.55910421 20.99864700 3.67207003
105.55821199 20.99875171 3.38416505
105.55788279 20.99875120 6.64167881
105.55867975 20.99880017 4.16826725
105.56084691 20.99854614 5.76840067
105.56118558 20.99857127 6.00353241
105.55947035 20.99857718 5.15760326
105.55976087 20.99858652 2.85658908
105.56058206 20.99867770 5.96572018
105.56018164 20.99876388 3.03479314
105.55996753 20.99879354 4.50493145
105.55978010 20.99884689 5.05211401
105.56040365 20.99885009 3.96824741
105.56030726 20.99892083 3.55932331
105.54565384 20.98946979 2.59693527
105.54717479 20.98948173 5.75349665
105.54577903 20.98948258 2.48343039
105.54588202 20.98948725 2.51197481
105.54414091 20.98951516 4.91136503
105.54765669 20.98954609 4.79797459
105.54688624 20.98955800 4.00303984
105.54703114 20.98955965 3.65597582
105.54697903 20.98956258 3.84077144
105.54750252 20.98957347 2.71913528
105.54529710 20.98972580 4.56375122
105.54454722 20.98973318 3.27470398
105.54513973 20.98973035 4.63231611
105.54689287 20.98974632 2.82593393
105.54467993 20.98974689 3.15421247
105.54541430 20.98975132 3.11932540
105.54531741 20.98974999 3.53696871
105.54704962 20.98975864 2.58813429
105.54571910 20.98977293 3.86863375
105.54670637 20.98977357 4.49576950
105.54762715 20.98977621 2.40955615
105.54688621 20.98977786 2.82593393
105.54632903 20.98979211 4.06076527
105.54411845 20.98979340 3.86368155
105.54502418 20.98979992 3.94063497
105.54692998 20.98982375 1.82062435
105.54687494 20.99142676 0.09885427
105.54432143 20.99145444 3.41576385
105.54436264 20.99163819 4.22059536
105.54613779 20.99165928 0.05469663
105.54883676 20.98827307 4.98707104
105.54915068 20.98828235 3.62652946
105.54961320 20.98828293 5.83335304
105.54920061 20.98831609 4.18536663
105.54818478 20.98832955 0.40230519
105.54826160 20.98849671 0.97012091
105.54826328 20.98939790 3.34082174
105.54925995 20.98969160 7.29810143
105.54822286 20.98970973 3.49646568
105.54931148 20.99419606 0.01973698
105.54715584 20.99189172 1.72431624
105.54594550 20.99216653 1.17500532
105.54608881 20.99220490 0.59747159
105.54551309 20.99220520 2.95246553
105.54579332 20.99222118 2.15663242
105.54587258 20.99223207 1.43880236
105.54653369 20.99224647 4.79078197
105.54611381 20.99227966 0.77363330
105.54645651 20.99228951 3.88461018
105.54584613 20.99229174 1.52404356
105.54652907 20.99232005 3.89634609
105.54660561 20.99233186 3.68885803
105.54646652 20.99236246 2.39186621
105.54658853 20.99237158 2.00963569
105.54670169 20.99260877 3.55842614
105.54676367 20.99274051 5.63010073
105.54689457 20.99278271 3.49220610
105.54472044 20.99284574 0.45291889
105.54440583 20.99287280 0.95323902
105.54442740 20.99291648 1.33650398
105.54459691 20.99293769 1.37428772
105.54567260 20.99294413 4.28221130
105.54512350 20.99297913 6.77201223
105.54617872 20.99300349 0.99272221
105.54626899 20.99300838 0.86106896
105.54452309 20.99303590 1.75151134
105.54491378 20.99305627 3.42930031
105.54681741 20.99306039 1.59824967
105.54596926 20.99306764 4.04920816
105.54677089 20.99311301 2.94365120
105.55070041 20.98450049 2.89227438
105.55076695 20.98884796 4.21889639
105.55067769 20.98915692 2.99809504
105.55006085 20.98931493 2.81032825
105.55056913 20.99321590 12.84410572
105.55031125 20.99586905 4.56472397
105.55029443 21.00699231 5.23058462
105.54662628 20.99345780 2.35149217
105.54669294 20.99354967 2.43877125
105.54667140 20.99369029 1.82836795
105.54549185 20.99382257 0.80505955
105.54470572 20.99412034 5.59317160
105.54472253 20.99447462 5.03535032
105.54471221 20.99455700 4.37299681
105.54472643 20.99587089 5.36846018
105.54557771 20.99710885 1.49291039
105.54579722 20.99716506 0.27075776
105.54506255 20.99752305 2.86212921
105.54553003 20.99824201 1.92682815
105.54427819 20.99893775 11.93924904
105.54661845 20.99967225 3.19062376
105.54416111 21.00094674 8.43292236
105.54585860 21.00189690 5.17676973
105.54427955 21.00238885 3.69315529
105.54698128 21.00260412 2.70387483
105.54484437 21.00269630 3.10886145
105.54535297 21.00285726 2.65416670
105.55522586 20.98561335 2.43156481
105.55521501 20.98571889 1.42542577
105.55528005 20.98633198 0.50832719
105.55436461 20.98647797 1.92090082
105.55447028 20.98647917 1.64831257
105.55429735 20.98662877 1.04296219
105.55462302 20.98693607 0.06820637
105.55526030 20.98695106 4.64721680
105.55516965 20.98709037 0.59626591
105.55525035 20.98747163 1.42127812
105.55574482 20.98817140 5.10305929
105.55574755 20.98824666 5.58480358
105.55594060 20.98831751 2.88812065
105.55585887 20.98838111 4.75282383
105.55598037 20.98846197 3.74886274
105.55594402 20.98856625 6.50049353
105.55606338 20.98859204 3.41173410
105.55602442 20.98875335 3.54161167
105.55537450 20.98876832 4.17595577
105.55605612 20.98881021 5.16998816
105.55385950 20.98754092 3.38473272
105.55527429 20.98757085 1.84159279
105.55516303 20.98757339 1.58615887
105.55523072 20.98769839 3.85612130
105.55526660 20.98817333 4.91634846
105.55475216 20.98818527 3.96454382
105.55396904 20.98842956 2.40979505
105.55467617 20.98861160 3.44168091
105.55530017 20.98928333 3.35163784
105.55419687 20.99435060 3.19696808
105.55228319 20.98760965 3.90670109
105.55276369 20.98761368 3.67386627
105.55283513 20.98764393 2.88958383
105.55253033 20.99249840 7.90419292
105.55247232 20.99538733 2.04776669
105.55247715 20.99562680 2.18978691
105.55255830 20.99595050 3.78158140
105.55250825 20.99632994 4.88430786
105.55236558 21.00269963 2.52031755
105.55314472 21.00289704 3.03246689
105.55111846 20.98753882 5.59771872
105.55131591 20.98752323 6.65374565
105.55154244 20.98754358 1.05610526
105.55186428 20.98935482 4.59021664
105.55184912 20.99431742 3.32490826
105.55212826 21.00533132 5.09109306
105.55145971 21.00534432 4.44793034
105.55208829 21.00547735 5.36395836
105.55178397 21.00557054 4.98948097
105.55199932 21.00571970 3.63976717
105.55440914 20.99460842 3.89677787
105.55489964 20.99568722 6.54625273
105.55461962 20.99645764 6.26616001
105.55530832 20.99723985 3.61291265
105.55470021 20.99745456 2.06423426
105.55465060 20.99905573 2.05281544
105.55480649 21.00291325 6.83294725
105.55509220 21.00475704 4.70870972
105.55493701 21.00498783 5.18510151
105.55506808 21.00511179 6.39313841
105.55486274 21.00521092 5.08007526
105.55501346 21.00534553 4.91409206
105.55430932 21.00545722 4.62318039
105.55487461 21.00548514 4.85681820
105.55455364 21.00571023 3.88896942
105.55488529 21.00578014 5.56220579
105.55504617 21.00606251 4.33858585
105.55437220 21.00620944 5.52631426
105.55479519 21.00629438 5.36593151
105.55503617 21.00632227 3.37220573
105.55554118 21.00534376 4.85083103
105.55610988 21.00546638 3.66892123
105.55572348 21.00560101 5.76538801
105.55602358 21.00565090 5.63416672
105.55535016 21.00568122 4.95126867
105.55549074 21.00576057 3.54175496
105.55623702 21.00591338 4.62714577
105.55538311 21.00595829 5.75303173
105.55569698 21.00605149 5.04109478
105.55556976 21.00620875 4.11269665
105.55495816 21.00652213 4.88882923
105.55440039 21.00652368 4.04435062
105.55414388 21.00653582 3.88368702
105.55453386 21.00656567 4.88694954
105.55472402 21.00657861 4.65637112
105.55512458 21.00666199 6.06537199
105.55397283 21.00668097 4.33575916
105.55478629 21.00676857 6.42859840
105.55493558 21.00677267 4.69388199
105.55435630 21.00681150 4.02903271
105.55446933 21.00688074 3.76073146
105.55425203 21.00690669 4.66693258
105.55507153 21.00705759 4.43049240
105.55482445 21.00712350 5.83808517
105.55408750 21.00713205 4.84072113
105.55468637 21.00732141 5.31064558
105.55495200 21.00728521 3.19238067
105.55523674 21.00729461 4.64047527
105.55388361 21.00735495 6.12151814
105.55438727 21.00737610 4.80631399
105.55617480 20.99924887 6.22436285
105.55625100 20.99968011 5.77180195
105.55642105 20.99979520 3.09009957
105.55630536 20.99992429 5.55652571
105.55645016 20.99999682 4.17987537
105.55573909 21.00477903 1.83530784
105.55577348 21.00494076 4.07509851
105.55540261 21.00497632 2.47876406
105.55551865 21.00519771 4.42417717
105.55585859 21.00521706 3.97826529
105.55747275 21.00045575 5.85808659
105.55703801 21.00049908 5.76755285
105.55765480 21.00053161 3.04798079
105.55712993 21.00061238 4.31775475
105.55751539 21.00094124 4.47891331
105.55772465 21.00103925 2.77691865
105.55763192 21.00118898 5.08758307
105.55771029 21.00131829 1.57970870
105.55713302 21.00444140 2.98755383
105.55705299 21.00493257 4.07735872
105.55907888 21.00121321 4.89949608
105.55879967 21.00126109 6.18657446
105.55903423 21.00145562 3.25522256
105.55907420 21.00166202 2.97723532
105.55932230 21.00176646 2.80420375
105.55877699 21.00707041 3.85444045
105.55929098 21.00710235 5.06508160
105.55897334 21.00715275 3.55181479
105.55856224 21.00727491 5.74734974
105.55876491 21.00735019 5.76665211
105.56103251 21.00348717 4.67739296
105.56133873 21.00369237 4.75637150
105.56115253 21.00384519 3.21759319
105.56095713 21.00394171 2.87884831
105.56118230 21.00397528 4.52606583
105.56147970 21.00414394 3.45144677
105.55950496 21.00708615 2.09454727
105.55960872 21.00721081 6.60500050
105.55979968 21.00735452 3.81853437
105.55942034 21.00736615 5.44340420
105.55591710 21.00622879 2.85995126
105.55614179 21.00625086 3.31366777
105.55536390 21.00632392 2.81763649
105.55578592 21.00638229 5.53447008
105.55550319 21.00642039 5.18454647
105.55534376 21.00645567 4.92353725
105.55559098 21.00657111 4.75595284
105.55598545 21.00665664 5.88709879
105.55642497 21.00674462 3.95860720
105.55603501 21.00694100 4.44032955
105.55836525 21.00751678 5.69549274
105.55888244 21.00765977 6.34583235
105.55869108 21.00766179 4.73548222
105.55844319 21.00770622 9.48468781
105.55930015 21.00773693 6.48306847
105.55871583 21.00779781 5.73830318
105.55892320 21.00788440 5.04091311
105.55864249 21.00807895 5.95443249
105.55911117 21.00810381 4.02774715
105.55885770 21.00818477 2.13097525
105.56002295 21.00757574 2.78721213
105.55966187 21.00763000 6.91619921
105.55979917 21.00763546 3.12439537
105.55989400 21.00790653 6.12754488
105.56027981 21.00801884 4.28289890
105.56009193 21.00814621 6.78946733
105.56050863 21.00816715 1.64861917
105.55976374 21.00826685 6.23673868
105.56021809 21.00830628 5.41569138
105.55955544 21.00839228 4.57860851
105.55610791 21.00771855 5.36577034
105.55643684 21.00777600 5.39500570
105.55571828 21.00781371 5.08346415
105.55597211 21.00789825 5.71317863
105.55541555 21.00809208 4.51163578
105.55633805 21.00811650 1.67236137
105.55618195 21.00817259 3.65164685
105.55535764 21.00826852 3.61337662
105.55588020 21.00833333 6.13160944
105.55644528 21.00832812 4.20893383
105.56060997 21.00840105 4.78820419
105.55941707 21.00843743 6.62220812
105.56030035 21.00846078 6.33665466
105.56077396 21.00848286 2.61385465
105.56043729 21.00850298 4.42664814
105.56073680 21.00862491 4.61439991
105.55953438 21.00865168 5.09329748
105.56038914 21.00869443 4.17237854
105.55977797 21.00872611 5.90798426
105.56082927 21.00876701 8.73149776
105.55679020 21.00746847 4.61035585
105.55652192 21.00751046 5.27975750
105.55710530 21.00826708 5.63866520
105.55660730 21.00865007 7.23130083
105.55712684 21.00892326 3.69399714
105.55723955 21.00892633 2.74620104
105.55690864 21.00932636 7.03536177
105.55703361 21.00966788 4.99814129
105.55677159 21.01000832 8.16612625
105.55707625 21.01020693 5.33303452
105.57039160 20.99685942 7.70730877
105.57107054 20.99687928 2.19875550
105.57111056 20.99690779 2.25989366
105.57032035 20.99691841 5.49772024
105.57101378 20.99694570 5.54514074
105.57107959 20.99694671 5.19474840
105.57113506 20.99696196 5.19474840
105.57035280 20.99697653 5.42805099
105.57097015 20.99698406 4.17999935
105.57090519 20.99700731 5.64025974
105.57134924 20.99684734 5.37832355
105.57127696 20.99688208 5.58404589
105.57153203 20.99690450 6.97540903
105.57140475 20.99690807 6.21370506
105.57133493 20.99690936 5.49977732
105.57116950 20.99699406 5.63649273
105.57124853 20.99701478 4.55829620
105.57102462 20.99703098 6.98684883
105.57114580 20.99708258 6.48929548
105.57077623 20.99709408 4.00237179
105.57089431 20.99709580 4.80684519
105.57108435 20.99709903 6.98684883
105.57061010 20.99711834 6.27562284
105.57080250 20.99712042 3.16993737
105.57083586 20.99715387 4.21697140
105.57047876 20.99716191 6.77665567
105.57069683 20.99716391 3.93408227
105.57120317 20.99705547 6.00184774
105.57175113 20.99710229 5.14828920
105.57129409 20.99708916 5.34287882
105.57169430 20.99715866 4.32622623
105.57135330 20.99717517 4.60863447
105.57152486 20.99717144 6.93267775
105.57187117 20.99720358 5.41350174
105.57169900 20.99724078 6.78324747
105.57100759 20.99716974 5.59278870
105.57062948 20.99720613 3.57343578
105.57090213 20.99722156 4.59399414
105.57053312 20.99722242 3.89280701
105.57047847 20.99725146 4.08824635
105.57098906 20.99726151 4.59399414
105.57094548 20.99729041 4.80747318
105.57043945 20.99729618 4.57781887
105.57036720 20.99730394 6.02817392
105.57113726 20.99731206 5.87734222
105.57005778 20.99711026 5.43218613
105.57015138 20.99711326 5.41384315
105.57001500 20.99713417 5.43218613
105.57012254 20.99716058 5.43218613
105.57009520 20.99722349 4.76257038
105.57014924 20.99728513 6.11949778
105.57000645 20.99729873 3.85767436
105.57008654 20.99731787 6.11949778
105.57028245 20.99734231 3.92385459
105.57012360 20.99736645 6.11949778
105.57127496 20.99725621 5.97051668
105.57142266 20.99731026 5.08448982
105.57189365 20.99731903 5.88186455
105.57132913 20.99733736 5.57811832
105.57135886 20.99736036 5.18582535
105.57183820 20.99738530 7.73653793
105.57165819 20.99738536 6.82462692
105.57148251 20.99742236 6.03065634
105.57139976 20.99744556 6.12370014
105.57132779 20.99747204 5.14517498
105.57049356 20.99731592 4.15319729
105.57080464 20.99733631 5.11389542
105.57040264 20.99734957 5.28978252
105.57101869 20.99735352 5.61951160
105.57093594 20.99735736 5.30802202
105.57076386 20.99736421 4.97447300
105.57106519 20.99738381 5.70638466
105.57032977 20.99738975 3.37353086
105.57052951 20.99740110 5.70217991
105.57109456 20.99741385 4.98255014
105.57007126 20.99736712 5.51615477
105.56966413 20.99739562 1.11918390
105.57022220 20.99740170 4.69017315
105.56973812 20.99740210 2.75981140
105.57024468 20.99743678 3.73411465
105.56947887 20.99746198 1.71260691
105.57016398 20.99747295 4.87781048
105.56997513 20.99747308 4.68006706
105.56992415 20.99750188 5.18364429
105.56988686 20.99752765 5.75444508
105.57100526 20.99743652 6.01697254
105.57080078 20.99744734 5.60576344
105.57093403 20.99745210 6.01697254
105.57112832 20.99746404 4.89986515
105.57043272 20.99746430 6.85213852
105.57036217 20.99748208 5.62921000
105.57061230 20.99748175 5.62010145
105.57048775 20.99748834 6.60548592
105.57099519 20.99749651 5.87648392
105.57032921 20.99751097 3.20611572
105.57206981 20.99739986 5.14198065
105.57220419 20.99749912 3.02038717
105.57226713 20.99751007 5.54619503
105.57202443 20.99751220 5.32718515
105.57217018 20.99753906 4.77432823
105.57223159 20.99757492 6.17201900
105.57212376 20.99760669 4.61867094
105.57238152 20.99762399 7.65425158
105.57230478 20.99761705 6.04141665
105.57246977 20.99765477 6.46464920
105.57206488 20.99766053 3.69952869
105.57221809 20.99766455 5.90004730
105.57254950 20.99771811 5.82353830
105.57234260 20.99767753 5.31804466
105.57210265 20.99768058 5.44918919
105.57218300 20.99770788 6.55947876
105.57236507 20.99772653 5.34115601
105.57200730 20.99774123 5.25055695
105.57224695 20.99775589 5.74272537
105.57263726 20.99779329 6.05537415
105.57215787 20.99779854 4.98036337
105.57219592 20.99780020 6.22202206
105.57207554 20.99780676 5.65041733
105.57271986 20.99786911 6.59380484
105.57249447 20.99782878 5.32250500
105.57264774 20.99783628 6.05537415
105.57199897 20.99784121 5.46868944
105.57236826 20.99785195 7.89700174
105.57255532 20.99785150 4.36471272
105.57225973 20.99786785 7.01425362
105.57205293 20.99788211 5.51766872
105.57250649 20.99788770 6.81245089
105.57221903 20.99791418 6.79243660
105.57264824 20.99791438 5.96829557
105.57275984 20.99792579 7.95784378
105.57211851 20.99792712 5.11336660
105.57202030 20.99793156 5.71841145
105.57253279 20.99793558 7.37768555
105.57281762 20.99794232 9.12816906
105.57232361 20.99793826 7.01425362
105.57256007 20.99798546 6.50813627
105.57217003 20.99798953 4.81837845
105.57249513 20.99799275 7.37768555
105.57228039 20.99799123 5.58764696
105.57210137 20.99801227 5.04025507
105.57232688 20.99802583 5.75519323
105.57223137 20.99803973 4.96654606
105.57239758 20.99804522 4.51447725
105.57205796 20.99806583 6.32964468
105.57284373 20.99800139 4.92281055
105.57284664 20.99809491 6.71478462
105.57294055 20.99811149 4.93109560
105.57300160 20.99816354 5.38381815
105.57312094 20.99819761 4.40449238
105.57214548 20.99805396 5.35366583
105.57266197 20.99805139 6.09177542
105.57256269 20.99806008 5.68382406
105.57219864 20.99807781 4.69018221
105.57237639 20.99810221 5.75519323
105.57256101 20.99811437 4.83780479
105.57201328 20.99812541 5.67452097
105.57267792 20.99813114 4.50734901
105.57257292 20.99815700 5.06449223
105.57214345 20.99816273 5.61565113
105.57265476 20.99818237 4.37305355
105.57221288 20.99818296 5.21299648
105.57205062 20.99818768 6.64272022
105.57239894 20.99819261 6.33639193
105.57215710 20.99822733 5.21299648
105.57233663 20.99823687 6.18135738
105.57261056 20.99823814 5.92126894
105.57207170 20.99825264 7.45401764
105.57227893 20.99826047 3.76149321
105.57219780 20.99826675 5.21299648
105.57303275 20.99821865 5.17343616
105.57318453 20.99824051 4.63373470
105.57299230 20.99822364 5.24873114
105.57294598 20.99824949 6.61081457
105.57287820 20.99825734 6.79316616
105.57279133 20.99825976 5.13982391
105.57300730 20.99828009 5.19156265
105.57327758 20.99833380 5.77082729
105.57317660 20.99832884 5.71746111
105.57216431 20.99829924 5.23328304
105.57270334 20.99830289 6.19691038
105.57235399 20.99832210 5.60620499
105.57230555 20.99833704 5.60620499
105.57208931 20.99833975 5.91249180
105.57224875 20.99835871 4.63216686
105.57216996 20.99836591 5.20836258
105.57211911 20.99838023 5.57794905
105.57246596 20.99838044 5.46402502
105.57202655 20.99838405 5.11796188
105.57335580 20.99838509 7.55093479
105.57296405 20.99833758 5.27405787
105.57304160 20.99836075 4.13525105
105.57313037 20.99839593 5.29276848
105.57288519 20.99839886 5.63038254
105.57298121 20.99840834 5.63038254
105.57306145 20.99843461 4.48899126
105.57327417 20.99845693 5.51543188
105.57336530 20.99846245 5.44061947
105.57314794 20.99848646 5.94764137
105.57227486 20.99840206 5.84480047
105.57207799 20.99840792 5.42673635
105.57267172 20.99841189 5.90762758
105.57217526 20.99843952 5.37254810
105.57230892 20.99843997 5.93501902
105.57253916 20.99844468 5.10773563
105.57246746 20.99846909 4.89952183
105.57258870 20.99847812 5.17403984
105.57207983 20.99849185 4.46713257
105.57277168 20.99850055 5.70356369
105.57262566 20.99850683 5.32577515
105.57217937 20.99852056 6.08084393
105.57247264 20.99852389 5.54687166
105.57239148 20.99852581 6.19082642
105.57233636 20.99852680 5.61079454
105.57211752 20.99853023 5.54324722
105.57226209 20.99853282 5.86310482
105.57256240 20.99853432 4.22504950
105.57202456 20.99853998 4.98671198
105.57214968 20.99857707 5.89496565
105.57349214 20.99849777 5.85721970
105.57289227 20.99849221 5.53292179
105.57318222 20.99850236 5.73967123
105.57330173 20.99852448 4.75205708
105.57286828 20.99854809 5.02293253
105.57316865 20.99855134 6.17593098
105.57303015 20.99854323 5.70360565
105.57338938 20.99858565 3.84371781
105.57326048 20.99859374 6.08963299
105.57304452 20.99858842 5.70360565
105.56957532 20.99816826 4.48594379
105.56974077 20.99817350 6.04694033
105.56951342 20.99817536 5.92120171
105.56993761 20.99820798 4.49244547
105.57023174 20.99821988 6.07197237
105.56975315 20.99822355 6.01963663
105.57006628 20.99824722 3.48051906
105.56955891 20.99828279 6.01661921
105.57029585 20.99829505 5.00436687
105.57017456 20.99830299 4.73663807
105.57044554 20.99826991 5.42943954
105.57109129 20.99827095 6.11544704
105.57092747 20.99827135 4.60200691
105.57038009 20.99832603 3.57459879
105.57050287 20.99833436 4.95876694
105.57032527 20.99833977 4.26285887
105.57098291 20.99835292 5.36129761
105.57068727 20.99834568 5.32904387
105.57093871 20.99836065 4.82465267
105.57037254 20.99836367 3.56443548
105.56992468 20.99830738 3.80015063
105.56970643 20.99832199 6.34542274
105.57012130 20.99834986 4.88111067
105.57025242 20.99835367 5.00436687
105.56944288 20.99836377 5.88591194
105.57002621 20.99836839 5.77524328
105.56996459 20.99837584 5.44241142
105.56984613 20.99837633 5.81599092
105.56960921 20.99838174 3.83547974
105.56965487 20.99839122 4.91135740
105.57128940 20.99831838 2.91443825
105.57148306 20.99831932 4.09998226
105.57145283 20.99836110 4.63656616
105.57177954 20.99836639 6.81511593
105.57115859 20.99836595 3.54669046
105.57149852 20.99836811 4.44815636
105.57119489 20.99839472 4.41561651
105.57182905 20.99840901 6.81511593
105.57125117 20.99843461 5.22401953
105.57136075 20.99844033 5.33336306
105.57046368 20.99840643 3.55302954
105.57101148 20.99841854 6.04530191
105.57034203 20.99842449 4.86891460
105.57092869 20.99844437 5.15365124
105.57090396 20.99844546 4.41744184
105.57060404 20.99845351 5.17206001
105.57050766 20.99846480 4.82479572
105.57108280 20.99848028 5.97220135
105.57037519 20.99848329 4.86891460
105.57079346 20.99849001 6.08802414
105.57176619 20.99844145 6.81511593
105.57185865 20.99844449 4.81658745
105.57154767 20.99844475 5.21923923
105.57183202 20.99845402 6.08529282
105.57167015 20.99846442 5.31019878
105.57148010 20.99847046 5.19805241
105.57197544 20.99847651 4.69676304
105.57143871 20.99848560 4.67366838
105.57126043 20.99849558 6.04074526
105.57184257 20.99850262 5.78488016
105.56952132 20.99842776 4.07787037
105.56974154 20.99843109 5.87307930
105.57021574 20.99844652 4.45351696
105.56987529 20.99845466 5.05423021
105.57006328 20.99845599 5.93445921
105.56959747 20.99846394 4.18131971
105.57014317 20.99847008 4.62618256
105.56975411 20.99847516 5.00185347
105.57029361 20.99850237 4.86891460
105.57001793 20.99850608 5.93445921
105.57099655 20.99849418 6.17094135
105.57047795 20.99851385 3.69354224
105.57107271 20.99851803 5.95946980
105.57068229 20.99854143 5.65950346
105.57082596 20.99856649 4.66961956
105.57031945 20.99860108 5.24799967
105.57112902 20.99860437 5.29643202
105.57061835 20.99860706 5.41583252
105.57073471 20.99861397 3.79315281
105.57068825 20.99862058 4.65331793
105.57115818 20.99851449 6.45765495
105.57170950 20.99851306 4.89055967
105.57162588 20.99852312 6.76302433
105.57146957 20.99853749 4.76973391
105.57143061 20.99854381 5.81767082
105.57167817 20.99858120 6.76302433
105.57155252 20.99861421 6.37997723
105.57119609 20.99860829 5.16492176
105.57139447 20.99861059 6.73294592
105.57181519 20.99861092 5.99356556
105.56961794 20.99851456 4.34300184
105.57023820 20.99852124 4.49593687
105.56956908 20.99852685 3.98533297
105.56974233 20.99854997 5.94065380
105.56992883 20.99857149 5.25089550
105.56966022 20.99858493 4.15991449
105.57019703 20.99862340 4.67292643
105.56969878 20.99863185 4.10475922
105.56976455 20.99863854 5.94065380
105.56949389 20.99864589 4.52898932
105.57349066 20.99853583 7.68630314
105.57285129 20.99860416 5.82588768
105.57316088 20.99860741 6.17593098
105.57337758 20.99863051 3.25657225
105.57310566 20.99864117 5.06734324
105.57317633 20.99865946 5.31429291
105.57324016 20.99868448 4.91774368
105.57293542 20.99869531 4.42026615
105.57317376 20.99870857 5.84161377
105.57336511 20.99871228 3.74030352
105.57252351 20.99858712 6.25856781
105.57275860 20.99858820 5.42655945
105.57244169 20.99859512 6.25856781
105.57206294 20.99859612 6.92718410
105.57224857 20.99861501 5.24781990
105.57267685 20.99862791 5.94664478
105.57244876 20.99864340 6.09154892
105.57216020 20.99865397 6.85140896
105.57246904 20.99869119 5.91166162
105.57229200 20.99869394 5.61378765
105.57304656 20.99871517 5.47905064
105.57284655 20.99872280 5.74580193
105.57325346 20.99873204 6.46412373
105.57319169 20.99875823 6.68529987
105.57313336 20.99880337 5.84483194
105.57338399 20.99880763 4.93001509
105.57323944 20.99880833 6.68529987
105.57278834 20.99881677 5.58453560
105.57292867 20.99882461 5.37091494
105.57205056 20.99871079 6.85140896
105.57276873 20.99871606 5.13690567
105.57199105 20.99873195 5.78387737
105.57263090 20.99874241 5.73453474
105.57237262 20.99874852 3.48034501
105.57220791 20.99875229 5.61378765
105.57244753 20.99879176 5.08068752
105.57272231 20.99880971 5.40570068
105.57208174 20.99881906 5.27547216
105.57262781 20.99883566 5.69786549
105.57221488 20.99885045 4.75541162
105.57213122 20.99886137 5.71455240
105.57236756 20.99886657 6.88731194
105.57254762 20.99886756 5.14073229
105.57227422 20.99887083 6.77340937
105.57208498 20.99888586 5.85770321
105.57250464 20.99889775 4.95512009
105.57256505 20.99890601 4.54951954
105.57200804 20.99890803 6.97733355
105.57238486 20.99893241 6.50721121
105.57334780 20.99885027 4.28553104
105.57340918 20.99885171 5.73242855
105.57292245 20.99886817 5.25661087
105.57330081 20.99887182 5.13543367
105.57344591 20.99885917 6.27180099
105.57305951 20.99888993 6.69400501
105.57316525 20.99890100 6.62856293
105.57334380 20.99892176 6.10352898
105.57297097 20.99893273 4.44656277
105.57287135 20.99893283 5.71223640
105.57342771 20.99894262 6.75335646
105.57279792 20.99894840 6.09483957
105.57326134 20.99897069 5.02601957
105.57301978 20.99898033 5.51085472
105.57314214 20.99900244 5.78372765
105.57321677 20.99901663 5.42814159
105.57333088 20.99902563 4.62466240
105.57281385 20.99903011 6.23849487
105.57328076 20.99903770 6.42593622
105.57010594 20.99784997 4.49344397
105.56984037 20.99785676 5.50856638
105.56970699 20.99786978 2.61979675
105.56994630 20.99787098 5.02568388
105.56958211 20.99787183 4.90914154
105.57029084 20.99788410 5.70312834
105.56949496 20.99789012 4.30346632
105.57003225 20.99790609 5.29688835
105.56974582 20.99790666 5.39318562
105.57015088 20.99791665 4.78287601
105.56927027 20.99783254 3.36779785
105.56911562 20.99784496 3.80630922
105.56920006 20.99785208 3.55527639
105.56904373 20.99787542 5.35943031
105.56939971 20.99788638 4.19983006
105.56893711 20.99790286 4.51543283
105.56932170 20.99791104 4.17991161
105.56913302 20.99791124 6.39663792
105.56925845 20.99791460 5.73552704
105.56901003 20.99793321 5.35943031
105.57192159 20.99785095 5.49098587
105.57179179 20.99785425 7.19162941
105.57139538 20.99785496 4.93820953
105.57154389 20.99785603 6.74132442
105.57187719 20.99787731 7.06386185
105.57183852 20.99790083 7.48589802
105.57164198 20.99791066 6.28934717
105.57141979 20.99791307 4.88596487
105.57157659 20.99793723 6.03785181
105.57120491 20.99794626 6.84137726
105.57093468 20.99792717 6.41918898
105.57083182 20.99793229 5.92637014
105.57077351 20.99797307 8.71852875
105.57105438 20.99797054 5.76376390
105.57051483 20.99796974 5.38747835
105.57059860 20.99797841 4.81809711
105.57069232 20.99799427 7.11271000
105.57059658 20.99803749 6.41824293
105.57075794 20.99803853 8.71852875
105.57069430 20.99804082 6.77508307
105.56979054 20.99792748 4.46601772
105.56972062 20.99795994 7.13494301
105.56985937 20.99796284 6.50282812
105.56960707 20.99796415 3.48815942
105.56946115 20.99797142 6.08317232
105.57017550 20.99797810 4.78287601
105.56980143 20.99798431 6.70298862
105.57009376 20.99799301 5.17800570
105.56963294 20.99802162 4.87754822
105.56974258 20.99802856 7.39530277
105.57149043 20.99797532 5.31940317
105.57141687 20.99800791 5.28682089
105.57191191 20.99800379 7.61249018
105.57179545 20.99802211 7.84875679
105.57121701 20.99803242 6.57718945
105.57169706 20.99803635 5.20418549
105.57127199 20.99805374 5.42520046
105.57155759 20.99807427 6.33999395
105.57147551 20.99809920 7.18091297
105.57135555 20.99812178 8.37952805
105.56981363 20.99804197 7.09373331
105.56956156 20.99804693 4.86764622
105.57028023 20.99805733 3.30940604
105.56999246 20.99806844 6.38840771
105.56977858 20.99806970 7.15638590
105.57020239 20.99810632 7.45089245
105.56985860 20.99812170 5.69443655
105.57007908 20.99812740 6.96449947
105.56996820 20.99813557 5.12841702
105.57028981 20.99816127 3.89340544
105.57084203 20.99804613 6.78954315
105.57095011 20.99806787 4.07891703
105.57044824 20.99806965 4.83056831
105.57062972 20.99810371 6.98087740
105.57032220 20.99810863 3.62399244
105.57110904 20.99813139 2.91195011
105.57056326 20.99814652 6.64857531
105.57097427 20.99815301 4.00921726
105.57060272 20.99818025 5.83498907
105.57102483 20.99818088 3.64698744
105.57045846 20.99817451 5.42943954
105.57079727 20.99819167 5.24182224
105.57108547 20.99819565 4.53167057
105.57050483 20.99820685 5.62535286
105.57032044 20.99821150 4.53647947
105.57067525 20.99821302 4.48090649
105.57063045 20.99824101 3.67893839
105.57102465 20.99825485 6.48536682
105.57050762 20.99825823 5.62535286
105.57080258 20.99826653 4.80431032
105.57127625 20.99814216 5.28764820
105.57149920 20.99814644 6.89118099
105.57160881 20.99817216 5.91689777
105.57138181 20.99823454 8.73451805
105.57167777 20.99824097 7.43295574
105.57155018 20.99826987 4.56621027
105.57184285 20.99827241 7.35893393
105.57129968 20.99827500 4.80649376
105.57121261 20.99827020 3.34595466
105.57194644 20.99829589 7.00443792
105.56847480 20.99716680 5.25788593
105.56831333 20.99717082 5.62433720
105.56840780 20.99718534 5.39073372
105.56812249 20.99720461 1.88100410
105.56778897 20.99720826 6.58163357
105.56833008 20.99721730 5.36710548
105.56803833 20.99722127 3.08744860
105.56826675 20.99723347 4.62299824
105.56817076 20.99724810 2.45838690
105.56797363 20.99727028 5.02594566
105.56809571 20.99727133 3.73170662
105.56820616 20.99727365 2.92022848
105.56800664 20.99731127 4.98847580
105.56793932 20.99734569 5.34267330
105.56804414 20.99735317 4.71553898
105.56787057 20.99736468 5.33633900
105.56781247 20.99736898 4.84617424
105.56806071 20.99738563 4.71553898
105.56813701 20.99739759 4.41748714
105.56809853 20.99741728 4.63364792
105.56797164 20.99742449 5.14516115
105.56789749 20.99742480 5.33633900
105.56819176 20.99743661 4.93318844
105.56803554 20.99744564 5.00173616
105.56814948 20.99745514 3.82855606
105.56823335 20.99753163 5.77805471
105.56796544 20.99753440 4.61132431
105.56787843 20.99758569 3.89626288
105.56798104 20.99762537 5.12279034
105.56811155 20.99763845 5.37545490
105.56891569 20.99795590 4.45638084
105.56932439 20.99798183 6.70624113
105.56889480 20.99798411 4.09104824
105.56924978 20.99798717 6.67063141
105.56885907 20.99802323 3.83720136
105.56921268 20.99806066 6.66904879
105.56882211 20.99807553 0.94856369
105.56888051 20.99808286 3.84544516
105.56903604 20.99808305 5.40273285
105.56905271 20.99812444 5.90555143
105.56894988 20.99812479 4.84819984
105.56883070 20.99820716 5.10673904
105.56935715 20.99820816 5.50467396
105.56920729 20.99821210 6.38202477
105.56893100 20.99821035 5.15447235
105.56913320 20.99824222 5.98539448
105.56882896 20.99825937 5.18099594
105.56920289 20.99828427 6.40662670
105.56900136 20.99828077 4.46534157
105.56928612 20.99829318 4.27863932
105.56908507 20.99830061 7.28309536
105.56890069 20.99831103 5.17837667
105.56935718 20.99831900 4.59109879
105.56879666 20.99831901 3.16278958
105.56883841 20.99831947 5.17837667
105.56934091 20.99836382 6.63216591
105.56923642 20.99836694 4.99602270
105.56899450 20.99836992 3.84121346
105.56912746 20.99837322 7.30289650
105.56938740 20.99840130 6.06503201
105.56895105 20.99841089 4.20544624
105.56881552 20.99842511 2.68249798
105.56903756 20.99842700 5.35640001
105.56926110 20.99844217 5.92058086
105.56876470 20.99846147 3.78964162
105.56883144 20.99847379 3.26645947
105.56916413 20.99848924 5.35509396
105.56925664 20.99850017 3.92859459
105.56895095 20.99850692 5.65840626
105.56888476 20.99851345 5.82563686
105.56880769 20.99854436 5.90073633
105.56938069 20.99854653 5.85005188
105.56934215 20.99858297 4.88913822
105.56927120 20.99859168 4.91748905
105.56896260 20.99859852 4.51973820
105.56887288 20.99860432 6.32809591
105.56880645 20.99861074 7.66111755
105.56940272 20.99861991 5.14123011
105.56870901 20.99862998 6.23695517
105.56892299 20.99863999 6.32809591
105.56847605 20.99821279 4.75548935
105.56856639 20.99824024 6.59435129
105.56865912 20.99824687 7.70072079
105.56868028 20.99879615 5.22531605
105.56866335 20.99887550 4.90859461
105.56866830 20.99892360 4.47590685
105.56865473 20.99897305 4.62117720
105.56859538 20.99898175 3.78695822
105.56869961 20.99911329 6.55008316
105.56865333 20.99912138 6.55008316
105.56918968 20.99875365 5.99031401
105.56940070 20.99880037 5.10967827
105.56903168 20.99878633 6.20910168
105.56918226 20.99883156 5.99031401
105.56881024 20.99883780 9.80038929
105.56930023 20.99883984 7.71794605
105.56911671 20.99886442 4.67598438
105.56938628 20.99888838 5.29058790
105.56892408 20.99890946 9.29655361
105.56877315 20.99891963 8.37118721
105.55963744 20.99773990 6.00443029
105.56082169 20.99782969 5.88595486
105.55991685 20.99791240 2.18552256
105.56035825 20.99794446 7.58606291
105.56069027 20.99795830 4.82214260
105.56141887 20.99798263 4.27780199
105.56056411 20.99802227 4.41435242
105.56093195 20.99804776 4.57326794
105.55967696 20.99809406 4.22833395
105.56022754 20.99812902 4.98085499
105.56340880 20.99795929 5.44779301
105.56419889 20.99796770 4.22398138
105.56391453 20.99802684 5.89999199
105.56429723 20.99812940 5.18276882
105.56307720 20.99813493 4.46923876
105.56451074 20.99821838 5.46716785
105.56408221 20.99821129 4.96817780
105.56416729 20.99833915 5.49800158
105.56353401 20.99838883 2.60977888
105.56322510 20.99846005 4.19999456
105.56177460 20.99802611 4.98069334
105.56192980 20.99802951 3.64233303
105.56246046 20.99804986 4.80926180
105.56191812 20.99822984 5.69884109
105.56167501 20.99826819 3.63367796
105.56290446 20.99830634 4.26246548
105.56220166 20.99829994 4.34040070
105.56259590 20.99836470 5.71593285
105.56155274 20.99843131 3.69657779
105.56288429 20.99852158 3.38798952
105.56583148 20.99777643 4.94390869
105.56497734 20.99779224 5.17352390
105.56594578 20.99783390 4.74646664
105.56566002 20.99787505 4.18845844
105.56568864 20.99811972 6.00952053
105.56487143 20.99913996 4.26330423
105.56496557 20.99972226 4.61207008
105.56527057 20.99994388 3.48670220
105.56539707 21.00001951 5.14049578
105.56582184 21.00023110 6.58418894
105.56305709 20.99853529 4.02147102
105.56332968 20.99859908 2.96530294
105.56387826 20.99911865 4.79619789
105.56329088 20.99911940 5.65961218
105.56309048 20.99914073 5.73123169
105.56424574 20.99915400 3.55825925
105.56319312 20.99927241 4.52260876
105.56393453 20.99933345 3.38112235
105.56403867 20.99942154 3.41788363
105.56377396 20.99947677 6.33527565
105.56186048 20.99854627 2.58138657
105.56201368 20.99866022 3.05239534
105.56161662 20.99874211 6.57075834
105.56160567 20.99892790 5.10996866
105.56171358 20.99907587 3.75236416
105.56167258 20.99929936 3.47495914
105.56298160 20.99931015 5.83229494
105.56188880 20.99945491 2.83232999
105.56166969 20.99952970 4.16222954
105.56226584 20.99968829 4.74291515
105.56163623 20.99986586 5.78766251
105.56181623 20.99999265 3.01861811
105.56160615 21.00003015 2.82420659
105.56172339 21.00015623 3.30757070
105.56229806 21.00021673 4.61700964
105.56192975 21.00026407 4.72799969
105.56173996 21.00035542 4.85387135
105.56286991 21.00049123 4.46300220
105.56162022 21.00053401 8.13899040
105.56237091 21.00093108 1.92842865
105.56450689 20.99948349 6.07864571
105.56306592 20.99989138 4.33704758
105.56327084 21.00101616 3.34726739
105.56463736 21.00117885 9.87645531
105.56350531 21.00120735 6.16823483
105.56407575 21.00130495 3.19374943
105.56350417 21.00137517 5.24943686
105.56444165 21.00138184 3.97816801
105.56416140 21.00144778 4.14222383
105.56456685 21.00148675 4.54318428
105.56541116 21.00023735 4.58437634
105.56637515 21.00063159 4.35452032
105.56509404 21.00071295 3.43714333
105.56543648 21.00086676 6.25261974
105.56633627 21.00090470 2.15052223
